-20.4461 22.949802 -17.938301 -0.418433 0.696817 0.582546 
-19.9461 22.961796 -17.6842 -0.274649 0.688348 0.671375 
-19.4461 22.9678 -17.557201 -0.17472 0.736864 0.653073 
-18.9461 22.973797 -17.430202 -0.220814 0.765987 0.603743 
-18.4461 22.985806 -17.176102 -0.059449 0.761779 0.645103 
-17.9461 22.979801 -17.303101 -0.02048 0.747667 0.663758 
-17.4461 22.985806 -17.176102 -0.174921 0.73631 0.653644 
-16.9461 22.991802 -17.049 -0.07644 0.748361 0.658872 
-16.4461 22.991802 -17.049 -0.010485 0.73364 0.679457 
-15.9461 22.991802 -17.049 -0.079264 0.715475 0.694127 
-15.4461 22.997799 -16.922001 0.0 0.719012 0.694998 
-14.9461 22.991802 -17.049 -0.0 0.71898 0.695031 
-14.4461 22.997799 -16.922001 -0.09195 0.732227 0.674825 
-13.9461 22.997799 -16.922001 -0.08352 0.776962 0.623982 
-13.4461 23.003803 -16.794998 -0.134046 0.828826 0.543212 
-12.9461 23.0098 -16.667999 -0.142806 0.851883 0.503886 
-12.4461 23.015797 -16.540901 -0.065337 0.859038 0.507725 
-11.9461 23.015797 -16.540901 0.105108 0.850589 0.51522 
-11.4461 22.997799 -16.922001 0.426233 0.713571 0.556005 
-10.9461 22.979801 -17.303101 0.543974 0.547918 0.635513 
-10.4461 22.949802 -17.938301 0.55162 0.337521 0.762755 
-8.9461 23.226803 -11.990001 -0.418467 0.868318 0.266287 
-8.4461 23.250797 -11.271903 -0.367091 0.890543 0.268659 
-7.9461 23.310795 -9.476798 -0.608604 0.739862 0.286714 
-7.4461 23.350796 -8.280097 -0.611814 0.736897 0.287519 
-6.9461 23.378796 -7.442401 -0.534707 0.801585 0.267488 
-6.4461 23.421803 -6.126002 -0.686695 0.688839 0.232273 
-5.9461 23.461796 -4.929198 -0.198024 0.786416 0.585095 
-5.4461 23.461796 -4.929198 -0.191506 0.79625 0.573856 
-4.9461 23.477802 -4.4505 -0.563658 0.745608 0.35547 
-4.4461 23.533802 -2.7751 -0.606039 0.705432 0.367535 
-3.9461 23.553799 -2.1767 -0.605763 0.709743 0.359606 
-3.4461 23.601803 -0.740699 -0.668101 0.664647 0.334493 
-2.9461 23.625797 -0.022601 -0.531161 0.720455 0.445884 
-2.4461 23.640797 0.456097 -0.540243 0.717399 0.439859 
-1.9461 23.664799 1.1741 -0.571506 0.706002 0.418261 
-1.4461 23.684803 1.7725 -0.473492 0.729147 0.494116 
-0.9461 23.696796 2.131501 -0.509334 0.688975 0.515648 
-0.4461 23.716801 2.729905 -0.615136 0.602325 0.508737 
0.0539 23.736797 3.328198 -0.589637 0.616199 0.522137 
0.5539 23.752804 3.806901 -0.496701 0.627959 0.599129 
1.0539 23.764797 4.166001 -0.496816 0.64654 0.57893 
1.5539 23.780804 4.644601 -0.5293 0.650088 0.545185 
2.0539 23.796795 5.1233 -0.527976 0.664038 0.529429 
2.5539 23.812801 5.601998 -0.496611 0.669341 0.552594 
3.0539 23.824795 5.961099 -0.451647 0.69769 0.556097 
3.5539 23.840801 6.439797 -0.401582 0.733008 0.549027 
4.0539 23.848804 6.679101 -0.295256 0.749064 0.593066 
4.5539 23.855801 6.918397 -0.348197 0.737122 0.579146 
5.0539 23.867802 7.277497 -0.355759 0.737677 0.573819 
5.5539 23.875797 7.516801 -0.336444 0.759333 0.556973 
6.0539 23.887798 7.875802 -0.347568 0.722475 0.597685 
6.5539 23.895802 8.115197 -0.308354 0.714192 0.628369 
7.0539 23.903805 8.354501 -0.316748 0.712668 0.62592 
7.5539 23.9118 8.593896 -0.247039 0.6914 0.678924 
8.0539 23.915798 8.713601 -0.184631 0.695907 0.693992 
8.5539 23.919804 8.833207 -0.179378 0.703658 0.687524 
9.0539 23.923801 8.952897 -0.25891 0.661687 0.703659 
9.5539 23.931805 9.192201 -0.344996 0.625494 0.699811 
10.0539 23.9398 9.431596 -0.425063 0.598448 0.679103 
10.5539 23.951801 9.790605 -0.473369 0.583548 0.659843 
11.0539 23.963802 10.149598 -0.529616 0.552844 0.643328 
11.5539 23.979801 10.628304 -0.513334 0.592318 0.621005 
12.0539 23.991802 10.987298 -0.418275 0.599957 0.681981 
12.5539 23.999798 11.226701 -0.461348 0.584379 0.667577 
13.0539 24.015804 11.7054 -0.47214 0.612715 0.633771 
13.5539 24.0238 11.944703 -0.37236 0.660167 0.652325 
14.0539 24.035801 12.303803 -0.394977 0.671456 0.627009 
14.5539 24.043797 12.543099 -0.328243 0.670841 0.665003 
15.0539 24.0518 12.782395 -0.34464 0.626787 0.698828 
15.5539 24.059795 13.021798 -0.248798 0.64603 0.721626 
16.0539 24.063801 13.141397 -0.085916 0.638676 0.764664 
16.5539 24.063801 13.141397 -0.089109 0.642738 0.760886 
17.0539 24.067799 13.261102 -0.093873 0.677679 0.729342 
17.5539 24.067799 13.261102 -0.158457 0.694478 0.701849 
18.0539 24.074802 13.500497 -0.325742 0.643754 0.69244 
18.5539 24.082806 13.7398 -0.194645 0.64335 0.740415 
19.0539 24.082806 13.7398 -0.083489 0.682674 0.725937 
19.5539 24.086796 13.859498 -0.180794 0.65442 0.734198 
20.0539 24.090801 13.979203 -0.080016 0.623007 0.778113 
20.5539 24.090801 13.979203 0.101761 0.595053 0.797218 
21.0539 24.086796 13.859498 0.097134 0.549831 0.829609 
21.5539 24.086796 13.859498 0.093168 0.544614 0.833496 
22.0539 24.082806 13.7398 0.177361 0.59418 0.784534 
22.5539 24.0788 13.620095 0.187995 0.615977 0.765003 
23.0539 24.074802 13.500497 0.095209 0.64478 0.758415 
23.5539 24.074802 13.500497 -0.087429 0.695004 0.713671 
24.0539 24.0788 13.620095 -0.08225 0.745115 0.661845 
24.5539 24.0788 13.620095 -0.115122 0.784568 0.609262 
25.0539 24.086796 13.859498 -0.264598 0.814479 0.516344 
25.5539 24.094799 14.098794 -0.173188 0.842927 0.509392 
26.0539 24.098797 14.218499 -0.13881 0.847823 0.511788 
26.5539 24.102802 14.338197 -0.127485 0.842073 0.524081 
27.0539 24.1068 14.457902 -0.010497 0.84896 0.528353 
27.5539 24.102802 14.338197 0.061979 0.845356 0.530596 
28.0539 24.102802 14.338197 0.010255 0.840701 0.541402 
28.5539 24.102802 14.338197 0.069454 0.832771 0.549244 
29.0539 24.098797 14.218499 0.188907 0.816133 0.546114 
29.5539 24.090801 13.979203 0.107864 0.800752 0.589204 
30.0539 24.090801 13.979203 0.082536 0.779581 0.620839 
30.5539 24.086796 13.859498 0.153047 0.774752 0.613463 
31.0539 24.082806 13.7398 0.161608 0.766235 0.621906 
31.5539 24.0788 13.620095 0.163512 0.762079 0.626498 
32.053902 24.074802 13.500497 0.214416 0.767293 0.60439 
32.553902 24.067799 13.261102 0.29419 0.751111 0.591003 
33.053902 24.059795 13.021798 0.229721 0.763209 0.603937 
33.553902 24.055805 12.902101 0.23477 0.761285 0.604425 
34.053902 24.047802 12.662805 0.371018 0.744843 0.554575 
34.553902 24.031796 12.184098 0.444211 0.72196 0.530519 
35.053902 24.019802 11.825105 0.422758 0.725221 0.543443 
35.553902 24.007801 11.465997 0.45381 0.733603 0.505849 
36.053902 23.991802 10.987298 0.439001 0.735209 0.516474 
36.553902 23.979801 10.628304 0.430309 0.764609 0.479799 
37.053902 23.959805 10.03 0.506468 0.738107 0.445745 
37.553902 23.943798 9.551301 0.446298 0.744574 0.496416 
38.053902 23.931805 9.192201 0.454524 0.746824 0.48545 
38.553902 23.9118 8.593896 0.495817 0.753156 0.432344 
39.053902 23.895802 8.115197 0.462639 0.767361 0.443985 
39.553902 23.879795 7.636498 0.481361 0.76344 0.43064 
40.053902 23.855801 6.918397 0.499646 0.769725 0.397337 
40.553902 23.840801 6.439797 0.47144 0.78521 0.401484 
41.053902 23.812801 5.601998 0.525633 0.775644 0.349409 
41.553902 23.792797 5.003701 0.489812 0.780769 0.387924 
42.053902 23.7728 4.405297 0.478679 0.780344 0.402405 
42.553902 23.756802 3.926598 0.486189 0.782997 0.387989 
43.053902 23.7328 3.208604 0.529595 0.764192 0.368158 
43.553902 23.712803 2.610204 0.511051 0.797697 0.320166 
44.053902 23.664799 1.1741 0.367747 0.851332 0.374161 
44.553902 23.656803 0.9348 0.411744 0.828387 0.379792 
45.053902 23.617802 -0.262 0.664837 0.70415 0.249329 
45.553902 23.569805 -1.697997 0.582264 0.774242 0.248029 
46.053902 23.461796 -4.929198 0.757582 0.438846 0.483202 
46.553902 23.437801 -5.6473 0.78395 0.31432 0.535374 
47.053902 23.413799 -6.365298 0.821249 0.200918 0.534024 
47.553902 23.386799 -7.203002 0.672547 0.51937 0.527196 
-73.696098 22.906796 -33.9426 -0.897255 -0.0008 0.441513 
-73.196098 22.9548 -32.926399 -0.916735 0.025898 0.398656 
-72.696098 23.025799 -31.402102 -0.946171 0.077442 0.314267 
-72.196098 23.097797 -29.877802 -0.920132 -0.002507 0.391601 
-71.696098 23.138798 -28.988701 -0.821286 0.056255 0.567736 
-71.196098 23.174801 -28.226501 -0.6936 0.094113 0.714186 
-70.696098 23.192799 -27.845501 -0.632388 -0.006344 0.774626 
-70.196098 23.210804 -27.464401 -0.627695 -0.038534 0.777505 
-69.696098 23.234798 -26.956303 -0.586724 0.047705 0.808381 
-69.196098 23.246799 -26.702202 -0.34644 0.126423 0.929514 
-68.696098 23.251804 -26.575203 -0.348779 0.124329 0.928922 
-68.196098 23.263798 -26.321201 -0.084401 0.09771 0.99163 
-67.696098 23.257801 -26.448204 0.019154 0.036395 0.999154 
-67.196098 23.424801 -22.891499 -0.94932 -0.034588 0.312402 
-66.696098 23.496799 -21.367302 -0.92131 -0.035177 0.387233 
-66.196098 23.543797 -20.351101 -0.887717 -0.039965 0.458651 
-65.696098 23.585796 -19.461903 -0.743247 -0.016295 0.668819 
-65.196098 23.603802 -19.080799 -0.60616 -0.000316 0.795343 
-64.696098 23.621799 -18.699799 -0.726609 0.000434 0.687051 
-64.196098 23.6628 -17.8106 -0.757331 -0.000998 0.65303 
-63.696098 23.686794 -17.302498 -0.586836 0.048576 0.808248 
-63.196098 23.698803 -17.048401 -0.453089 0.078763 0.887979 
-62.696098 23.710804 -16.794399 -0.471392 0.037517 0.881126 
-62.196098 23.722797 -16.540401 -0.4321 -0.041916 0.900851 
-61.696098 23.734798 -16.286301 -0.431318 -0.036333 0.901468 
-61.196098 23.746799 -16.032303 -0.3648 0.001965 0.931084 
-60.696098 23.752804 -15.905299 -0.26765 0.043761 0.962522 
-60.196098 23.757801 -15.778197 -0.246245 0.086508 0.965339 
-59.696098 23.763798 -15.651198 -0.122445 0.04264 0.991559 
-59.196098 23.763798 -15.651198 0.0 -0.000779 1.0 
-58.696098 23.763798 -15.651198 0.099509 -0.00073 0.995036 
-58.196098 23.757801 -15.778197 0.121653 0.04614 0.9915 
-57.696098 23.757801 -15.778197 0.0 0.088744 0.996054 
-57.196098 23.757801 -15.778197 0.0 0.088744 0.996054 
-56.696098 23.757801 -15.778197 0.022976 0.133499 0.990783 
-56.196098 23.757801 -15.778197 0.143028 0.173813 0.974337 
-55.696098 23.752804 -15.905299 0.324576 0.167442 0.930921 
-55.196098 23.740803 -16.159302 0.367163 0.163848 0.915612 
-54.696098 23.734798 -16.286301 0.244506 0.170353 0.954566 
-54.196098 23.728794 -16.413303 0.414726 0.157542 0.896205 
-53.696098 23.710804 -16.794399 0.422057 0.160492 0.89225 
-53.196098 23.7048 -16.921402 0.346618 0.127836 0.929255 
-52.696098 23.692806 -17.175499 0.453077 0.078799 0.887982 
-52.196098 23.680798 -17.429501 0.509513 0.076555 0.857051 
-51.696098 23.6628 -17.8106 0.509536 0.076586 0.857034 
-51.196098 23.650799 -18.064602 0.489331 0.076362 0.868749 
-50.696098 23.638798 -18.318703 0.509573 0.07638 0.857031 
-50.196098 23.621799 -18.699799 0.528103 0.033185 0.848532 
-49.696098 23.609806 -18.9538 0.469632 -0.037381 0.882071 
-49.196098 23.597797 -19.207901 0.450074 -0.078488 0.889535 
-48.696098 23.585796 -19.461903 0.450082 -0.078517 0.889529 
-48.196098 23.573803 -19.716 0.368967 -0.079306 0.926053 
-47.696098 23.567799 -19.843002 0.299304 -0.119985 0.946584 
-47.196098 23.555805 -20.097 0.217499 -0.170721 0.961014 
-46.696098 23.555805 -20.097 0.0 -0.175887 0.98441 
-46.196098 23.555805 -20.097 0.0 -0.175887 0.98441 
-45.696098 23.555805 -20.097 0.0 -0.175887 0.98441 
-45.196098 23.555805 -20.097 -0.115598 -0.213826 0.970008 
-44.696098 23.561802 -19.970001 -0.096675 -0.253544 0.962481 
-44.196098 23.561802 -19.970001 -0.114431 -0.290714 0.949943 
-43.696098 23.567799 -19.843002 -0.128271 -0.245177 0.960955 
-43.196098 23.567799 -19.843002 0.0 -0.176006 0.984389 
-42.696098 23.567799 -19.843002 -0.115535 -0.213859 0.970008 
-42.196102 23.573803 -19.716 -0.096679 -0.253491 0.962495 
-41.696098 23.573803 -19.716 0.110014 -0.284628 0.952304 
-41.196098 23.567799 -19.843002 0.214232 -0.288346 0.933253 
-40.696098 23.561802 -19.970001 0.137684 -0.253584 0.957464 
-40.196098 23.561802 -19.970001 0.110001 -0.284656 0.952298 
-39.696098 23.555805 -20.097 0.229709 -0.319756 0.919233 
-39.196098 23.549793 -20.224003 0.214306 -0.288147 0.933297 
-38.696098 23.543797 -20.351101 0.137767 -0.253428 0.957494 
-38.196098 23.543797 -20.351101 0.0967 -0.253444 0.962505 
-37.696098 23.5378 -20.4781 0.159656 -0.208287 0.964949 
-37.196098 23.5378 -20.4781 0.098628 -0.164012 0.981515 
-36.696098 23.531803 -20.605099 0.358148 -0.153538 0.920954 
-36.196098 23.519802 -20.859203 0.322659 -0.163135 0.932351 
-35.696098 23.513805 -20.986202 0.221775 -0.129536 0.966456 
-35.196098 23.507801 -21.113201 0.244264 -0.087155 0.965784 
-34.696098 23.501797 -21.240204 0.266695 -0.043755 0.962787 
-34.196098 23.496799 -21.367302 0.246271 -0.000167 0.969201 
-33.696098 23.490803 -21.494301 0.224169 0.042456 0.973625 
-33.196098 23.484798 -21.6213 0.246244 0.085678 0.965413 
-32.696098 23.478802 -21.748302 0.348116 0.044278 0.936405 
-32.196098 23.466801 -22.002399 0.433335 0.040022 0.900344 
-31.6961 23.4548 -22.256401 0.47012 0.117065 0.874804 
-31.1961 23.442799 -22.510498 0.541278 0.14595 0.82808 
-30.6961 23.424801 -22.891499 0.588496 0.108693 0.801161 
-30.1961 23.406796 -23.272602 0.589724 0.03402 0.806888 
-29.6961 23.388798 -23.653702 0.436388 -0.047782 0.898489 
-29.1961 23.382801 -23.780701 0.325678 -0.085586 0.941599 
-28.6961 23.371799 -24.034798 0.450152 -0.078576 0.889488 
-28.1961 23.359798 -24.288799 0.344065 -0.035837 0.938262 
-27.6961 23.353802 -24.415798 0.245666 0.086473 0.96549 
-27.1961 23.347797 -24.542801 0.22371 0.207707 0.952267 
-26.6961 23.341801 -24.669903 0.146225 0.325408 0.934199 
-26.1961 23.341801 -24.669903 0.004404 0.472443 0.88135 
-25.6961 23.341801 -24.669903 -0.073387 0.582749 0.809332 
-25.1961 23.347797 -24.542801 -0.257589 0.691622 0.674764 
-24.6961 23.359798 -24.288799 -0.322923 0.743807 0.585212 
-24.1961 23.371799 -24.034798 -0.405551 0.760987 0.506387 
-23.6961 23.406796 -23.272602 -0.581048 0.757128 0.298566 
-23.1961 23.466801 -22.002399 -0.560291 0.733426 0.384915 
-22.6961 23.496799 -21.367302 -0.560349 0.656072 0.505548 
-22.1961 23.519802 -20.859203 -0.602362 0.676683 0.423392 
-21.6961 23.555805 -20.097 -0.585328 0.720715 0.37143 
-21.1961 23.585796 -19.461903 -0.482875 0.722683 0.494532 
-20.6961 23.603802 -19.080799 -0.428597 0.727027 0.536411 
-20.1961 23.621799 -18.699799 -0.426083 0.748512 0.508117 
-19.6961 23.638798 -18.318703 -0.180941 0.787182 0.58958 
-19.1961 23.638798 -18.318703 -0.098227 0.781356 0.616306 
-18.6961 23.644802 -18.1917 -0.166996 0.765804 0.621013 
-18.1961 23.650799 -18.064602 -0.159531 0.757616 0.632904 
-17.6961 23.656803 -17.937603 -0.174996 0.735808 0.654189 
-17.1961 23.6628 -17.8106 -0.090284 0.756562 0.64766 
-16.6961 23.6628 -17.8106 -0.074094 0.77157 0.631815 
-16.1961 23.668797 -17.683601 -0.079392 0.747725 0.659245 
-15.6961 23.668797 -17.683601 -0.011001 0.757047 0.653268 
-15.1961 23.668797 -17.683601 0.011001 0.757047 0.653268 
-14.6961 23.668797 -17.683601 -0.011001 0.757047 0.653268 
-14.1961 23.668797 -17.683601 0.0 0.774646 0.632395 
-13.6961 23.668797 -17.683601 0.063006 0.795244 0.603007 
-13.1961 23.6628 -17.8106 -0.016271 0.815208 0.578939 
-12.6961 23.668797 -17.683601 -0.143358 0.817939 0.557158 
-12.1961 23.674801 -17.556602 -0.123206 0.843687 0.522505 
-11.6961 23.680798 -17.429501 0.132528 0.808253 0.573727 
-11.1961 23.668797 -17.683601 0.339804 0.713602 0.612622 
-10.6961 23.656803 -17.937603 0.495335 0.556047 0.667424 
-10.1961 23.638798 -18.318703 0.027476 0.63721 0.7702 
-9.6961 23.650799 -18.064602 -0.123049 0.732189 0.669894 
-9.1961 23.626797 -18.572701 0.24838 0.659933 0.709081 
-8.1961 23.894802 -12.8567 0.207016 0.894538 0.396165 
-7.6961 23.871807 -13.364799 0.440229 0.805469 0.396759 
-6.6961 24.039799 -8.638801 -0.496403 0.799574 0.338031 
-6.1961 24.059795 -8.040397 -0.499954 0.808409 0.310677 
-5.6961 24.133801 -5.7667 -0.37086 0.762172 0.530619 
-5.1961 24.137798 -5.646998 -0.275343 0.74586 0.60653 
-4.6961 24.149799 -5.288001 -0.498596 0.721483 0.480484 
-4.1961 24.2038 -3.612602 -0.702421 0.643102 0.305 
-3.6961 24.227802 -2.894599 -0.617489 0.691138 0.375548 
-3.1961 24.258801 -1.937198 -0.679715 0.675836 0.285015 
-2.6961 24.293797 -0.860198 -0.510922 0.77538 0.371139 
-2.1961 24.309803 -0.381499 -0.52147 0.748336 0.409954 
-1.6961 24.332798 0.336503 -0.54217 0.742715 0.39297 
-1.1961 24.351803 0.934899 -0.473327 0.777185 0.414663 
-0.6961 24.367802 1.413598 -0.502871 0.757127 0.416988 
-0.1961 24.394794 2.251302 -0.563165 0.68238 0.46605 
0.3039 24.410801 2.73 -0.559714 0.681634 0.47127 
0.8039 24.430798 3.328297 -0.425461 0.692261 0.582888 
1.3039 24.437801 3.567696 -0.421967 0.701121 0.57478 
1.8039 24.4538 4.046304 -0.458127 0.709636 0.535292 
2.3039 24.465801 4.405396 -0.46499 0.718063 0.517851 
2.8039 24.480801 4.884004 -0.49505 0.714877 0.493837 
3.3039 24.496799 5.362702 -0.37248 0.742465 0.55678 
3.8039 24.504795 5.602105 -0.365569 0.755004 0.544359 
4.3039 24.515804 5.961099 -0.324027 0.767074 0.553719 
4.8039 24.5238 6.200402 -0.326471 0.772636 0.544473 
5.3039 24.535801 6.559503 -0.253977 0.796801 0.548273 
5.8039 24.539799 6.679101 -0.25211 0.816196 0.51987 
6.3039 24.5518 7.038095 -0.180623 0.846161 0.501385 
6.8039 24.5518 7.038095 -0.181489 0.849066 0.496133 
7.3039 24.562801 7.397202 -0.371062 0.788504 0.490483 
7.8039 24.574802 7.756196 -0.324985 0.774458 0.54277 
8.3039 24.582798 7.9955 -0.29748 0.730942 0.61419 
8.8039 24.590801 8.234803 -0.314699 0.681498 0.660701 
9.3039 24.597805 8.474198 -0.349495 0.637068 0.687021 
9.8039 24.605801 8.713502 -0.399473 0.612437 0.68216 
10.3039 24.617802 9.072503 -0.425144 0.59807 0.679385 
10.8039 24.625805 9.311906 -0.465577 0.598456 0.651988 
11.3039 24.640797 9.790605 -0.511079 0.579919 0.634423 
11.8039 24.652805 10.149598 -0.404111 0.635153 0.658236 
12.3039 24.660801 10.388902 -0.408735 0.656888 0.633588 
12.8039 24.672802 10.747895 -0.476476 0.650285 0.591693 
13.3039 24.687801 11.226602 -0.419118 0.669558 0.613215 
13.8039 24.695797 11.465905 -0.336585 0.668667 0.66302 
14.3039 24.7038 11.7053 -0.333364 0.68286 0.650054 
14.8039 24.711796 11.944604 -0.357975 0.708257 0.608462 
15.3039 24.722805 12.303605 -0.2813 0.723386 0.630542 
15.8039 24.726803 12.423303 -0.171161 0.730265 0.661375 
16.3039 24.730801 12.543 -0.073084 0.723705 0.686229 
16.8039 24.730801 12.543 -0.018633 0.729311 0.683929 
17.3039 24.730801 12.543 -0.087629 0.715988 0.692591 
17.8039 24.734798 12.662698 -0.242309 0.696258 0.675656 
18.3039 24.742802 12.902001 -0.31897 0.695947 0.643363 
18.8039 24.750797 13.141297 -0.145658 0.689841 0.709157 
19.3039 24.750797 13.141297 -0.165247 0.657404 0.735197 
19.8039 24.757793 13.3807 -0.165303 0.657567 0.735038 
20.3039 24.757793 13.3807 -0.013194 0.645503 0.763644 
20.8039 24.757793 13.3807 0.025823 0.623751 0.781196 
21.303902 24.757793 13.3807 0.07955 0.62246 0.778599 
21.8039 24.754803 13.261003 0.176931 0.593909 0.784836 
22.3039 24.750797 13.141297 0.206746 0.587336 0.782491 
22.8039 24.746799 13.021707 0.188094 0.615371 0.765467 
23.3039 24.742802 12.902001 0.080107 0.622162 0.778779 
23.8039 24.742802 12.902001 0.003657 0.661216 0.750187 
24.3039 24.742802 12.902001 0.0 0.699924 0.714217 
24.8039 24.742802 12.902001 -0.077889 0.710646 0.699225 
25.3039 24.746799 13.021707 -0.0864 0.778149 0.622109 
25.8039 24.746799 13.021707 -0.064643 0.823987 0.562909 
26.3039 24.750797 13.141297 -0.192929 0.827093 0.527917 
26.8039 24.757793 13.3807 -0.11666 0.848253 0.516582 
27.3039 24.757793 13.3807 0.011243 0.859805 0.510499 
27.8039 24.757793 13.3807 0.057743 0.862727 0.502362 
28.3039 24.754803 13.261003 0.055217 0.874026 0.482731 
28.8039 24.754803 13.261003 0.064475 0.862785 0.501443 
29.3039 24.750797 13.141297 -0.008213 0.829178 0.558925 
29.8039 24.754803 13.261003 0.0 0.800418 0.599443 
30.3039 24.750797 13.141297 0.142379 0.797587 0.586159 
30.8039 24.746799 13.021707 0.148425 0.790592 0.594082 
31.3039 24.742802 12.902001 0.209402 0.790259 0.575884 
31.8039 24.734798 12.662698 0.196553 0.797095 0.57097 
32.303902 24.730801 12.543 0.221928 0.793338 0.566888 
32.803902 24.722805 12.303605 0.274175 0.78022 0.562214 
33.303902 24.715801 12.064294 0.319093 0.780315 0.537856 
33.803902 24.7038 11.7053 0.314767 0.784241 0.534684 
34.303902 24.695797 11.465905 0.299294 0.784799 0.542691 
34.803902 24.687801 11.226602 0.405191 0.751802 0.520206 
35.303902 24.668797 10.628198 0.497166 0.748645 0.438586 
35.803902 24.652805 10.149598 0.448563 0.776372 0.442762 
36.303902 24.636799 9.670899 0.395948 0.789002 0.469788 
36.803902 24.625805 9.311906 0.429538 0.778828 0.457082 
37.303902 24.609798 8.833207 0.443769 0.772316 0.45453 
37.803902 24.594799 8.354501 0.476475 0.768205 0.42759 
38.303902 24.574802 7.756196 0.523229 0.768359 0.368586 
38.803902 24.5518 7.038095 0.447172 0.815282 0.367903 
39.303902 24.535801 6.559503 0.428368 0.81737 0.385237 
39.803902 24.515804 5.961099 0.488739 0.785758 0.379103 
40.303902 24.496799 5.362702 0.497668 0.792191 0.353214 
40.803902 24.473804 4.6447 0.491511 0.799864 0.344433 
41.303902 24.4538 4.046304 0.433262 0.814974 0.384839 
41.803902 24.437801 3.567696 0.488122 0.789315 0.37245 
42.303902 24.410801 2.73 0.460384 0.819677 0.340847 
42.803902 24.394794 2.251302 0.481207 0.810081 0.334977 
43.303902 24.348797 0.815202 0.586128 0.770029 0.25201 
43.803902 24.324802 0.097199 0.556181 0.788737 0.261832 
44.303902 24.277798 -1.338798 0.593405 0.784551 0.179864 
44.803902 24.188801 -4.0913 0.517216 0.621951 0.587933 
45.303902 24.180798 -4.330604 0.494919 0.612771 0.61609 
45.803902 24.149799 -5.288001 0.721785 0.595016 0.353528 
46.303902 24.121799 -6.125701 0.644353 0.663123 0.38089 
-73.446098 23.6478 -33.433201 -0.897263 -8.8e-05 0.441497 
-72.946098 23.694798 -32.417 -0.918005 0.043649 0.39416 
-72.446098 23.7598 -31.0198 -0.947932 0.102196 0.30163 
-71.946098 23.841801 -29.2416 -0.758078 0.063369 0.649078 
-71.446098 23.858799 -28.860498 -0.707701 0.09876 0.699575 
-70.946098 23.888798 -28.225399 -0.746719 0.150839 0.64781 
-70.446098 23.917805 -27.590302 -0.603433 0.087774 0.792568 
-69.946098 23.929798 -27.3363 -0.540602 0.140071 0.829536 
-69.446098 23.947796 -26.955299 -0.486942 0.074457 0.870255 
-68.946098 23.952801 -26.828201 -0.342707 -0.046678 0.938282 
-68.446098 23.964802 -26.5742 -0.42747 -0.047745 0.902768 
-67.946098 24.052799 -24.6689 -0.771997 -0.52633 0.356368 
-67.446098 24.099796 -23.652802 -0.87048 -0.271641 0.410458 
-66.946098 24.170803 -22.128601 -0.914569 -0.096003 0.392871 
-66.446098 24.228802 -20.858402 -0.909928 0.015957 0.414459 
-65.946098 24.275806 -19.842201 -0.839987 0.032366 0.54164 
-65.446098 24.305798 -19.207199 -0.690634 -0.015124 0.723046 
-64.946098 24.322803 -18.826103 -0.675238 -0.092353 0.731795 
-64.446098 24.352795 -18.190998 -0.749168 0.022446 0.662 
-63.946098 24.375797 -17.682899 -0.65319 0.170375 0.737777 
-63.446098 24.393795 -17.301899 -0.501767 0.22665 0.834781 
-62.946098 24.405804 -17.047802 -0.524148 0.187645 0.830697 
-62.446098 24.422802 -16.666801 -0.523897 0.105158 0.845266 
-61.946098 24.434795 -16.4128 -0.36721 0.082358 0.926485 
-61.446098 24.4408 -16.285801 -0.346573 0.122663 0.929968 
-60.946098 24.452801 -16.031704 -0.346067 0.122384 0.930193 
-60.446098 24.458797 -15.9047 -0.246164 0.087302 0.965288 
-59.946098 24.463795 -15.777701 -0.2241 0.130294 0.965817 
-59.446098 24.469799 -15.650599 -0.119585 0.127719 0.984575 
-58.946098 24.469799 -15.650599 0.0 0.088218 0.996101 
-58.446098 24.469799 -15.650599 0.142431 0.085035 0.986145 
-57.946098 24.463795 -15.777701 0.099942 0.087246 0.991161 
-57.446098 24.463795 -15.777701 0.0 0.088289 0.996095 
-56.946098 24.463795 -15.777701 0.119368 0.127765 0.984595 
-56.446098 24.458797 -15.9047 0.220435 0.214374 0.951552 
-55.946098 24.452801 -16.031704 0.240883 0.255138 0.936419 
-55.446098 24.446804 -16.158703 0.345267 0.209857 0.914741 
-54.946098 24.434795 -16.4128 0.34468 0.210126 0.9149 
-54.446098 24.428799 -16.539803 0.321659 0.25008 0.913234 
-53.946098 24.416798 -16.7938 0.465288 0.192009 0.864083 
-53.446098 24.405804 -17.047802 0.324747 0.168302 0.930706 
-52.946098 24.399807 -17.1749 0.367034 0.164387 0.915567 
-52.446098 24.387798 -17.428902 0.450202 0.158863 0.878681 
-51.946098 24.375797 -17.682899 0.470233 0.117917 0.874629 
-51.446098 24.364803 -17.937 0.509591 0.076761 0.856986 
-50.946098 24.346798 -18.318001 0.509701 0.077833 0.856824 
-50.446098 24.334797 -18.572102 0.471527 0.038835 0.880996 
-49.946098 24.322803 -18.826103 0.470994 0.037878 0.881323 
-49.446098 24.311794 -19.0802 0.433596 0.040977 0.900175 
-48.946098 24.299801 -19.334202 0.452917 0.000362 0.891552 
-48.446098 24.2878 -19.5882 0.452931 0.000331 0.891545 
-47.946098 24.275806 -19.842201 0.222138 0.000892 0.975015 
-47.446098 24.275806 -19.842201 0.16187 -0.036631 0.986132 
-46.946098 24.270794 -19.969299 0.099563 -0.085661 0.991337 
-46.446098 24.270794 -19.969299 0.0 -0.08658 0.996245 
-45.946098 24.270794 -19.969299 0.0 -0.08658 0.996245 
-45.446098 24.270794 -19.969299 -0.120461 -0.128644 0.984348 
-44.946098 24.275806 -19.842201 -0.117442 -0.124634 0.985228 
-44.446098 24.275806 -19.842201 -0.120162 -0.128892 0.984352 
-43.946098 24.281803 -19.715202 -0.117244 -0.124635 0.985251 
-43.446098 24.281803 -19.715202 -0.022153 -0.130658 0.99118 
-42.946098 24.281803 -19.715202 -0.098212 -0.173408 0.979941 
-42.446098 24.2878 -19.5882 -0.11721 -0.12458 0.985262 
-41.946098 24.2878 -19.5882 -0.022169 -0.130626 0.991184 
-41.446098 24.2878 -19.5882 0.140224 -0.169496 0.975504 
-40.946098 24.281803 -19.715202 0.217349 -0.209397 0.953369 
-40.446098 24.275806 -19.842201 0.115462 -0.211648 0.970502 
-39.946098 24.275806 -19.842201 0.140393 -0.169456 0.975487 
-39.446098 24.270794 -19.969299 0.241111 -0.166087 0.95618 
-38.946098 24.264797 -20.096298 0.240908 -0.166089 0.956231 
-38.446098 24.258801 -20.223301 0.120243 -0.128678 0.98437 
-37.946098 24.258801 -20.223301 0.218041 -0.081665 0.972517 
-37.446098 24.246799 -20.477299 0.198394 -0.039462 0.979328 
-36.946098 24.246799 -20.477299 0.222087 0.000321 0.975027 
-36.446098 24.234806 -20.731403 0.347981 -0.044089 0.936464 
-35.946098 24.228802 -20.858402 0.266262 -0.042687 0.962955 
-35.446098 24.223797 -20.985401 0.246188 0.000313 0.969222 
-34.946098 24.2178 -21.112404 0.326856 4.6e-05 0.945074 
-34.446098 24.205799 -21.366501 0.326869 0.001106 0.945069 
-33.946098 24.199802 -21.4935 0.246222 0.001901 0.969212 
-33.446098 24.193806 -21.620502 0.267122 0.044735 0.962624 
-32.946098 24.187794 -21.747501 0.246232 0.086665 0.965328 
-32.446098 24.181797 -21.8745 0.367143 0.081779 0.926563 
-31.9461 24.170803 -22.128601 0.509647 0.076348 0.85699 
-31.4461 24.152805 -22.509602 0.588238 0.109849 0.801193 
-30.9461 24.135799 -22.890697 0.524336 0.106291 0.844851 
-30.4461 24.123798 -23.144699 0.45176 -0.00216 0.892137 
-29.9461 24.111805 -23.398701 0.465755 -0.114092 0.877528 
-29.4461 24.099796 -23.652802 0.321002 -0.162957 0.932954 
-28.9461 24.0938 -23.7798 0.361472 -0.159288 0.918676 
-28.4461 24.082806 -24.033802 0.444593 -0.155435 0.882144 
-27.9461 24.070805 -24.287899 0.427669 -0.117919 0.896211 
-27.4461 24.058796 -24.541901 0.363581 0.011179 0.931496 
-26.9461 24.052799 -24.6689 0.345967 0.121191 0.930387 
-26.4461 24.041805 -24.923 0.324743 0.250435 0.912044 
-25.9461 24.035801 -25.049999 0.233316 0.396203 0.888024 
-25.4461 24.029797 -25.176998 0.084137 0.483333 0.871384 
-24.9461 24.029797 -25.176998 -0.137487 0.560299 0.8168 
-24.4461 24.041805 -24.923 -0.254865 0.689096 0.678373 
-23.9461 24.046803 -24.795902 -0.21471 0.776565 0.592323 
-23.4461 24.058796 -24.541901 -0.339465 0.837477 0.428248 
-22.9461 24.099796 -23.652802 -0.49085 0.837593 0.239802 
-22.4461 24.152805 -22.509602 -0.479055 0.834932 0.270916 
-21.9461 24.181797 -21.8745 -0.498121 0.813647 0.299757 
-21.4461 24.2178 -21.112404 -0.569527 0.764411 0.302185 
-20.9461 24.258801 -20.223301 -0.410067 0.793563 0.449558 
-20.4461 24.270794 -19.969299 -0.313629 0.819957 0.478861 
-19.9461 24.2878 -19.5882 -0.323567 0.824437 0.464335 
-19.4461 24.299801 -19.334202 -0.253984 0.829111 0.498064 
-18.9461 24.311794 -19.0802 -0.21374 0.812679 0.542096 
-18.4461 24.317806 -18.953102 -0.157088 0.808947 0.566505 
-17.9461 24.322803 -18.826103 -0.155263 0.802208 0.576503 
-17.4461 24.3288 -18.6991 -0.084228 0.810187 0.580088 
-16.9461 24.3288 -18.6991 -0.006074 0.80806 0.589068 
-16.4461 24.3288 -18.6991 -0.073682 0.806366 0.58681 
-15.9461 24.334797 -18.572102 -0.068931 0.816362 0.573412 
-15.4461 24.334797 -18.572102 -0.006138 0.808157 0.588935 
-14.9461 24.334797 -18.572102 0.0 0.79875 0.601663 
-14.4461 24.334797 -18.572102 0.006138 0.808157 0.588935 
-13.9461 24.334797 -18.572102 0.068931 0.816362 0.573412 
-13.4461 24.3288 -18.6991 0.000795 0.808801 0.588081 
-12.9461 24.334797 -18.572102 -0.079858 0.810374 0.580445 
-12.4461 24.334797 -18.572102 0.103802 0.842208 0.529065 
-11.9461 24.322803 -18.826103 0.116859 0.853778 0.507353 
-11.4461 24.322803 -18.826103 0.008818 0.838854 0.544285 
-10.9461 24.322803 -18.826103 0.01685 0.778368 0.627582 
-10.4461 24.322803 -18.826103 0.083828 0.685444 0.723284 
-9.9461 24.317806 -18.953102 0.095719 0.664361 0.741257 
-9.4461 24.317806 -18.953102 -0.013035 0.563034 0.826331 
-8.9461 24.317806 -18.953102 0.060466 0.542468 0.837898 
-8.4461 24.311794 -19.0802 0.353622 0.415006 0.838285 
-7.9461 24.2878 -19.5882 0.498646 0.021809 0.866531 
-3.4461 24.886806 -4.091098 -0.616351 0.749671 0.24105 
-2.9461 24.924801 -2.894401 -0.535289 0.766191 0.355551 
-2.4461 24.9398 -2.415698 -0.54222 0.756312 0.366044 
-1.9461 24.978802 -1.219001 -0.506318 0.750879 0.424054 
-1.4461 24.989803 -0.86 -0.40307 0.781949 0.475491 
-0.9461 25.005795 -0.381297 -0.391396 0.820764 0.416121 
-0.4461 25.020802 0.097401 -0.454032 0.823621 0.339858 
0.0539 25.047802 0.934998 -0.535429 0.79285 0.291042 
0.5539 25.077801 1.8924 -0.51974 0.784999 0.337116 
1.0539 25.096798 2.490704 -0.406702 0.803428 0.434853 
1.5539 25.108799 2.849702 -0.373301 0.796045 0.476401 
2.0539 25.119801 3.208699 -0.387052 0.800555 0.457495 
2.5539 25.135799 3.687402 -0.44625 0.778733 0.440949 
3.0539 25.150799 4.166101 -0.357451 0.806295 0.471293 
3.5539 25.158802 4.405396 -0.319831 0.824534 0.466746 
4.0539 25.173801 4.884095 -0.353761 0.800054 0.484528 
4.5539 25.180805 5.123406 -0.211638 0.817397 0.535791 
5.0539 25.184795 5.243104 -0.156665 0.811958 0.562298 
5.5539 25.188801 5.362794 -0.220345 0.790588 0.57133 
6.0539 25.196796 5.602105 -0.308501 0.749134 0.586196 
6.5539 25.2038 5.841401 -0.340802 0.724198 0.599493 
7.0539 25.215801 6.200402 -0.442276 0.719879 0.534944 
7.5539 25.230793 6.679101 -0.464006 0.711126 0.528203 
8.0539 25.242802 7.038095 -0.422946 0.697647 0.578277 
8.5539 25.253796 7.397202 -0.376194 0.688219 0.620349 
9.0539 25.261799 7.636498 -0.361167 0.689757 0.627529 
9.5539 25.2728 7.9955 -0.389939 0.66787 0.633954 
10.0539 25.280796 8.234803 -0.391797 0.655605 0.645506 
10.5539 25.291805 8.593804 -0.462771 0.625498 0.628169 
11.0539 25.303799 8.952798 -0.474653 0.603485 0.640711 
11.5539 25.3148 9.311799 -0.396205 0.667608 0.630335 
12.0539 25.322796 9.551202 -0.375275 0.679809 0.630102 
12.5539 25.334797 9.910203 -0.39608 0.668031 0.629965 
13.0539 25.341801 10.149499 -0.362524 0.706612 0.607681 
13.5539 25.353802 10.5085 -0.392763 0.737195 0.5498 
14.0539 25.364803 10.867501 -0.351364 0.736526 0.57799 
14.5539 25.372799 11.106896 -0.243421 0.745085 0.620962 
15.0539 25.376797 11.226502 -0.214484 0.766409 0.605486 
15.5539 25.383801 11.465905 -0.271937 0.78337 0.558912 
16.0539 25.391804 11.705201 -0.142664 0.782523 0.606057 
16.5539 25.391804 11.705201 -0.080653 0.768394 0.634874 
17.0539 25.395794 11.824899 -0.153906 0.736039 0.659212 
17.5539 25.399799 11.944604 -0.166722 0.718455 0.675297 
18.0539 25.402798 12.064202 -0.234794 0.722435 0.650353 
18.5539 25.410801 12.303605 -0.308667 0.720558 0.620903 
19.0539 25.418797 12.542901 -0.223895 0.703174 0.674847 
19.5539 25.421803 12.662599 -0.183875 0.695382 0.694719 
20.0539 25.4258 12.782197 -0.159079 0.700978 0.695215 
20.5539 25.429798 12.901895 -0.0 0.680082 0.733136 
21.0539 25.4258 12.782197 0.063778 0.677761 0.732511 
21.5539 25.4258 12.782197 0.030774 0.669629 0.742058 
22.0539 25.4258 12.782197 0.165553 0.63341 0.755899 
22.5539 25.418797 12.542901 0.257744 0.60393 0.754212 
23.0539 25.414806 12.423196 0.091408 0.597374 0.796737 
23.5539 25.414806 12.423196 0.091109 0.597521 0.796661 
24.0539 25.410801 12.303605 0.080356 0.619568 0.780819 
24.5539 25.410801 12.303605 0.012902 0.642536 0.766147 
25.0539 25.410801 12.303605 0.069325 0.69541 0.715261 
25.5539 25.406803 12.1839 0.073474 0.720975 0.689055 
26.0539 25.406803 12.1839 -0.060209 0.747428 0.661609 
26.5539 25.410801 12.303605 0.011808 0.814807 0.579612 
27.0539 25.402798 12.064202 0.142196 0.837279 0.527962 
27.5539 25.402798 12.064202 0.060116 0.863181 0.501302 
28.0539 25.399799 11.944604 0.058153 0.860453 0.506201 
28.5539 25.399799 11.944604 -0.057567 0.856983 0.51212 
29.0539 25.402798 12.064202 -0.114374 0.853227 0.508844 
29.5539 25.406803 12.1839 -0.010925 0.858653 0.512442 
30.0539 25.402798 12.064202 0.060363 0.857965 0.510149 
30.5539 25.402798 12.064202 0.067335 0.844457 0.531374 
31.0539 25.399799 11.944604 0.142814 0.824041 0.548234 
31.5539 25.395794 11.824899 0.190187 0.819114 0.541186 
32.053902 25.387806 11.585504 0.195848 0.814155 0.546622 
32.553902 25.383801 11.465905 0.208575 0.804939 0.555491 
33.053902 25.376797 11.226502 0.271183 0.808492 0.522303 
33.553902 25.368801 10.987206 0.333015 0.792466 0.510978 
34.053902 25.353802 10.5085 0.295364 0.815918 0.497029 
34.553902 25.349796 10.388902 0.30658 0.819807 0.483658 
35.053902 25.326794 9.6708 0.487842 0.777523 0.396823 
35.553902 25.311802 9.192201 0.388228 0.807542 0.444021 
36.053902 25.299793 8.833207 0.415141 0.800238 0.432755 
36.553902 25.276798 8.115197 0.352478 0.832811 0.426831 
37.053902 25.268803 7.875802 0.339086 0.833541 0.436155 
37.553902 25.249805 7.277497 0.497729 0.79599 0.344479 
38.053902 25.223797 6.439797 0.513941 0.788972 0.336731 
38.553902 25.2038 5.841401 0.380596 0.836293 0.394666 
39.053902 25.192799 5.4824 0.394737 0.828774 0.396631 
39.553902 25.173801 4.884095 0.490776 0.803632 0.336622 
40.053902 25.146801 4.046395 0.513872 0.798187 0.314377 
40.553902 25.123798 3.3284 0.446129 0.817197 0.364908 
41.053902 25.108799 2.849702 0.419915 0.829398 0.36847 
41.553902 25.089802 2.251397 0.486246 0.816796 0.310499 
42.053902 25.062801 1.413697 0.43009 0.841631 0.32662 
42.553902 25.047802 0.934998 0.563206 0.777823 0.278909 
43.053902 25.001804 -0.500999 0.579751 0.782907 0.22571 
43.553902 24.955807 -1.936999 0.606438 0.772996 0.186306 
44.053902 24.909801 -3.373 0.714156 0.661209 0.229748 
44.553902 24.871799 -4.569697 0.507198 0.686418 0.521134 
45.053902 24.863804 -4.8091 0.464977 0.70302 0.538107 
45.553902 24.809803 -6.484401 0.629268 0.728613 0.270453 
-73.696098 24.347797 -33.942299 -0.895478 0.085778 0.436762 
-73.196098 24.393795 -32.926201 -0.889211 0.10577 0.445103 
-72.696098 24.4398 -31.910101 -0.934129 0.065417 0.350889 
-72.196098 24.515804 -30.258902 -0.9482 0.037936 0.3154 
-71.696098 24.567799 -29.1157 -0.768965 0.042569 0.637872 
-71.196098 24.590801 -28.6077 -0.677083 0.136169 0.723199 
-70.696098 24.614796 -28.099602 -0.720382 0.226176 0.655664 
-70.196098 24.637798 -27.591503 -0.582809 0.154192 0.797846 
-69.696098 24.6488 -27.337502 -0.609382 0.043087 0.791705 
-69.196098 24.683796 -26.575401 -0.747312 -0.290174 0.597766 
-68.696098 24.788799 -24.289101 -0.67444 -0.593599 0.439057 
-68.196098 24.822803 -23.527 -0.537803 -0.60744 0.584623 
-67.696098 24.840801 -23.146 -0.60557 -0.591918 0.531901 
-67.196098 24.881794 -22.256901 -0.774665 -0.343065 0.531225 
-66.696098 24.915798 -21.494801 -0.867158 -0.113833 0.484849 
-66.196098 24.9688 -20.351601 -0.868686 0.056554 0.492125 
-65.696098 25.002804 -19.5895 -0.817359 0.048756 0.574063 
-65.196098 25.031796 -18.954403 -0.710002 0.000353 0.704199 
-64.696098 25.055798 -18.446404 -0.694525 0.00355 0.71946 
-64.196098 25.072803 -18.0653 -0.603489 0.066273 0.794612 
-63.696098 25.089802 -17.684299 -0.524355 0.188282 0.830423 
-63.196098 25.101795 -17.430202 -0.50168 0.227214 0.83468 
-62.696098 25.118801 -17.049202 -0.597162 0.21065 0.773966 
-62.196098 25.136799 -16.668102 -0.501605 0.227229 0.834721 
-61.696098 25.1478 -16.414101 -0.339756 0.198951 0.919231 
-61.196098 25.153805 -16.287102 -0.366812 0.164596 0.915619 
-60.696098 25.165798 -16.0331 -0.324839 0.168218 0.930689 
-60.196098 25.171803 -15.9061 -0.123095 0.216351 0.968524 
-59.696098 25.171803 -15.9061 -0.141566 0.259022 0.955441 
-59.196098 25.177799 -15.778998 -0.098553 0.25947 0.960709 
-58.696098 25.177799 -15.778998 0.098553 0.25947 0.960709 
-58.196098 25.171803 -15.9061 0.118762 0.217707 0.968762 
-57.696098 25.171803 -15.9061 0.021212 0.219191 0.975451 
-57.196098 25.171803 -15.9061 0.098484 0.259414 0.960732 
-56.696098 25.165798 -16.0331 0.240831 0.255024 0.936463 
-56.196098 25.159801 -16.160103 0.240931 0.255042 0.936433 
-55.696098 25.153805 -16.287102 0.240912 0.255073 0.936429 
-55.196098 25.1478 -16.414101 0.344875 0.210088 0.914836 
-54.696098 25.136799 -16.668102 0.344909 0.209971 0.91485 
-54.196098 25.130802 -16.7952 0.345001 0.209929 0.914825 
-53.696098 25.118801 -17.049202 0.366584 0.164466 0.915733 
-53.196098 25.113804 -17.176201 0.324832 0.168057 0.930721 
-52.696098 25.101795 -17.430202 0.450196 0.159227 0.878618 
-52.196098 25.089802 -17.684299 0.450124 0.159176 0.878665 
-51.696098 25.0788 -17.938301 0.450046 0.159184 0.878703 
-51.196098 25.066799 -18.192299 0.469891 0.118852 0.874687 
-50.696098 25.055798 -18.446404 0.452973 0.080346 0.887897 
-50.196098 25.043804 -18.700401 0.509709 0.077989 0.856805 
-49.696098 25.026798 -19.081501 0.420672 0.081973 0.903502 
-49.196098 25.020802 -19.2085 0.34811 0.046684 0.936291 
-48.696098 25.008801 -19.462502 0.452941 0.001621 0.891539 
-48.196098 24.997799 -19.716503 0.369342 0.002235 0.929291 
-47.696098 24.991795 -19.843502 0.224526 0.044978 0.97343 
-47.196098 24.985798 -19.9706 0.122471 0.044601 0.991469 
-46.696098 24.985798 -19.9706 0.0 0.001819 0.999998 
-46.196098 24.985798 -19.9706 0.0 0.001819 0.999998 
-45.696098 24.985798 -19.9706 -0.100028 0.00181 0.994983 
-45.196098 24.991795 -19.843502 -0.14398 0.002523 0.989577 
-44.696098 24.991795 -19.843502 -0.121001 -0.040481 0.991827 
-44.196098 24.997799 -19.716503 -0.120925 -0.040444 0.991837 
-43.696098 24.997799 -19.716503 -0.099982 0.001852 0.994987 
-43.196098 25.002804 -19.5895 -0.122843 -0.041422 0.991561 
-42.696098 25.002804 -19.5895 -0.022008 -0.041199 0.998909 
-42.196102 25.002804 -19.5895 -0.099977 0.001766 0.994988 
-41.696098 25.008801 -19.462502 1e-06 0.003577 0.999994 
-41.196098 25.002804 -19.5895 0.146617 0.002873 0.989189 
-40.696098 25.002804 -19.5895 0.118808 -0.032546 0.992384 
-40.196098 24.997799 -19.716503 0.224962 -0.038501 0.973607 
-39.696098 24.991795 -19.843502 0.246329 0.002533 0.969183 
-39.196098 24.985798 -19.9706 0.246266 0.002407 0.969199 
-38.696098 24.979801 -20.097599 0.246211 0.002343 0.969213 
-38.196098 24.973797 -20.224602 0.224292 0.044823 0.97349 
-37.696098 24.9688 -20.351601 0.267179 0.04563 0.962566 
-37.196098 24.962803 -20.4786 0.224487 0.044901 0.973442 
-36.696098 24.956799 -20.605698 0.267356 0.045498 0.962523 
-36.196098 24.950794 -20.7327 0.346345 0.038361 0.937322 
-35.696098 24.9398 -20.986698 0.306061 0.041197 0.95112 
-35.196098 24.933804 -21.113701 0.246212 0.002463 0.969213 
-34.696098 24.927799 -21.2407 0.287978 0.002674 0.957633 
-34.196098 24.921803 -21.367699 0.246266 0.002336 0.969199 
-33.696098 24.915798 -21.494801 0.346459 0.038291 0.937283 
-33.196098 24.904797 -21.748802 0.328002 0.085687 0.940783 
-32.696098 24.8988 -21.875801 0.346249 0.122462 0.930116 
-32.196098 24.886806 -22.129803 0.450145 0.158596 0.878759 
-31.6961 24.875797 -22.3839 0.526989 0.11791 0.841653 
-31.1961 24.8578 -22.7649 0.508683 -0.00771 0.860919 
-30.6961 24.846798 -23.019001 0.364586 -0.077962 0.9279 
-30.1961 24.840801 -23.146 0.342092 -0.117653 0.932272 
-29.6961 24.8288 -23.400002 0.339981 -0.201899 0.918504 
-29.1961 24.822803 -23.527 0.34013 -0.201857 0.918458 
-28.6961 24.811802 -23.781101 0.444798 -0.153423 0.882392 
-28.1961 24.799801 -24.035103 0.46557 -0.112781 0.877796 
-27.6961 24.788799 -24.289101 0.52558 -0.040494 0.84978 
-27.1961 24.770802 -24.6702 0.491646 0.043797 0.869693 
-26.6961 24.7598 -24.924202 0.452931 0.079699 0.887976 
-26.1961 24.747799 -25.178204 0.449673 0.159365 0.878861 
-25.6961 24.735806 -25.432301 0.215921 0.247261 0.944585 
-25.1961 24.735806 -25.432301 0.117698 0.296113 0.947873 
-24.6961 24.730801 -25.559299 0.121493 0.451877 0.883769 
-24.1961 24.730801 -25.559299 0.008053 0.619091 0.785278 
-23.6961 24.730801 -25.559299 -0.085496 0.674832 0.733003 
-23.1961 24.735806 -25.432301 -0.23677 0.724072 0.647811 
-22.6961 24.747799 -25.178204 -0.283292 0.807648 0.517155 
-22.1961 24.7598 -24.924202 -0.303675 0.859553 0.411035 
-21.6961 24.782803 -24.4161 -0.439134 0.848999 0.293874 
-21.1961 24.863804 -22.637901 -0.57181 0.795411 0.200882 
-20.6961 24.915798 -21.494801 -0.514164 0.805043 0.295874 
-20.1961 24.9398 -20.986698 -0.290593 0.859447 0.420603 
-19.6961 24.950794 -20.7327 -0.313903 0.843781 0.435315 
-19.1961 24.9688 -20.351601 -0.227507 0.851527 0.472379 
-18.6961 24.973797 -20.224602 -0.137425 0.863811 0.484711 
-18.1961 24.979801 -20.097599 -0.18623 0.867249 0.461733 
-17.6961 24.991795 -19.843502 -0.184496 0.859167 0.477277 
-17.1961 24.997799 -19.716503 -0.133284 0.848229 0.512585 
-16.6961 25.002804 -19.5895 -0.064945 0.83966 0.539216 
-16.1961 25.002804 -19.5895 -0.015065 0.837924 0.545579 
-15.6961 25.002804 -19.5895 -0.066718 0.833677 0.548207 
-15.1961 25.008801 -19.462502 -0.067266 0.829003 0.555184 
-14.6961 25.008801 -19.462502 0.066038 0.821909 0.565778 
-14.1961 25.002804 -19.5895 0.06922 0.814727 0.575699 
-13.6961 25.002804 -19.5895 0.012537 0.81609 0.577789 
-13.1961 25.002804 -19.5895 0.058975 0.831348 0.552614 
-12.6961 24.997799 -19.716503 0.127782 0.832237 0.539494 
-12.1961 24.991795 -19.843502 0.085423 0.813586 0.575136 
-11.6961 24.991795 -19.843502 -0.008568 0.802375 0.596758 
-11.1961 24.991795 -19.843502 -0.072322 0.788415 0.610878 
-10.6961 24.997799 -19.716503 -0.145698 0.788393 0.597669 
-10.1961 25.002804 -19.5895 -0.062826 0.761732 0.644839 
-9.6961 25.002804 -19.5895 -0.078112 0.731475 0.677379 
-9.1961 25.008801 -19.462502 -0.080029 0.704829 0.704849 
-8.6961 25.008801 -19.462502 0.019496 0.669764 0.742318 
-8.1961 25.008801 -19.462502 0.201625 0.460974 0.864205 
-7.6961 25.002804 -19.5895 0.236943 0.314467 0.919222 
-7.1961 24.997799 -19.716503 0.249991 0.550946 0.796218 
-6.6961 24.985798 -19.9706 0.21097 0.627703 0.74932 
-5.6961 25.171803 -15.9061 0.613943 0.645781 0.453918 
-5.1961 25.142796 -16.541103 0.16483 0.702948 0.691878 
-2.6961 25.581799 -4.451201 -0.601161 0.766258 0.226837 
-2.1961 25.619801 -3.254398 -0.599423 0.728694 0.331206 
-1.6961 25.649799 -2.297099 -0.601993 0.735532 0.310801 
-1.1961 25.671795 -1.579002 -0.428059 0.782236 0.452628 
-0.6961 25.683796 -1.22 -0.264011 0.799025 0.540239 
-0.1961 25.686802 -1.100299 -0.304961 0.806511 0.506496 
0.3039 25.709805 -0.382301 -0.523304 0.781169 0.340482 
0.8039 25.7328 0.335702 -0.482572 0.811296 0.330035 
1.3039 25.750805 0.934102 -0.426955 0.847778 0.314615 
1.8039 25.7738 1.6521 -0.395228 0.855507 0.334517 
2.3039 25.788799 2.130803 -0.351177 0.845782 0.401657 
2.8039 25.799801 2.4898 -0.358957 0.840466 0.405915 
3.3039 25.8148 2.968503 -0.346408 0.853075 0.390211 
3.8039 25.826801 3.327595 -0.323828 0.846023 0.423533 
4.3039 25.837803 3.6866 -0.373674 0.803488 0.463438 
4.8039 25.848797 4.045602 -0.365987 0.789343 0.492941 
5.3039 25.859798 4.404603 -0.317599 0.775788 0.545237 
5.8039 25.867802 4.644006 -0.358133 0.732114 0.579439 
6.3039 25.878803 5.002999 -0.42423 0.69025 0.58616 
6.8039 25.889797 5.362 -0.377121 0.661724 0.647998 
7.3039 25.8978 5.601296 -0.410901 0.650366 0.638893 
7.8039 25.908802 5.960404 -0.495328 0.654662 0.571024 
8.3039 25.923794 6.439103 -0.467582 0.675916 0.569652 
8.8039 25.935802 6.798097 -0.365055 0.703119 0.610212 
9.3039 25.942799 7.0374 -0.324739 0.698341 0.637859 
9.8039 25.950802 7.276803 -0.396623 0.678848 0.617945 
10.3039 25.961803 7.635797 -0.421598 0.681575 0.598089 
10.8039 25.972797 7.994798 -0.480772 0.671848 0.563452 
11.3039 25.987797 8.473496 -0.398418 0.687653 0.606957 
11.8039 25.9958 8.712899 -0.327886 0.709189 0.624132 
12.3039 26.002804 8.952195 -0.364883 0.711619 0.600382 
12.8039 26.013798 9.311204 -0.356383 0.723573 0.591129 
13.3039 26.021801 9.550599 -0.301972 0.735415 0.606612 
13.8039 26.029797 9.789903 -0.312609 0.740496 0.59493 
14.3039 26.0368 10.029298 -0.285178 0.771006 0.569406 
14.8039 26.044804 10.268601 -0.275069 0.788452 0.550163 
15.3039 26.0518 10.507897 -0.205797 0.777978 0.59363 
15.8039 26.055798 10.627603 -0.231977 0.769895 0.594516 
16.3039 26.062801 10.867005 -0.212028 0.76112 0.612976 
16.8039 26.066799 10.986604 -0.150171 0.759491 0.632948 
17.3039 26.070797 11.106301 -0.165002 0.756094 0.633322 
17.8039 26.074795 11.225999 -0.159699 0.746549 0.64588 
18.3039 26.077801 11.345597 -0.225289 0.747891 0.624423 
18.8039 26.085804 11.585 -0.284975 0.758397 0.586193 
19.3039 26.0928 11.824296 -0.21737 0.768717 0.601518 
19.8039 26.096798 11.944001 -0.154608 0.769113 0.62013 
20.3039 26.100803 12.063699 -0.083989 0.775766 0.625406 
20.8039 26.100803 12.063699 -0.076663 0.752894 0.653662 
21.303902 26.104801 12.183404 0.057793 0.723104 0.688318 
21.8039 26.096798 11.944001 0.05779 0.723117 0.688304 
22.3039 26.100803 12.063699 0.037991 0.691391 0.721482 
22.8039 26.096798 11.944001 0.089694 0.636572 0.765984 
23.3039 26.096798 11.944001 0.086547 0.63247 0.769735 
23.8039 26.0928 11.824296 0.089719 0.636296 0.76621 
24.3039 26.0928 11.824296 0.080177 0.616336 0.783391 
24.8039 26.089794 11.704705 0.173833 0.631091 0.755981 
25.3039 26.085804 11.585 0.114241 0.671365 0.732269 
25.8039 26.085804 11.585 0.07984 0.705658 0.70404 
26.3039 26.081799 11.465302 0.144502 0.746457 0.649555 
26.8039 26.077801 11.345597 0.231321 0.757521 0.610452 
27.3039 26.070797 11.106301 0.210076 0.7714 0.600675 
27.8039 26.066799 10.986604 0.089752 0.802974 0.589217 
28.3039 26.066799 10.986604 0.005054 0.827884 0.560877 
28.8039 26.066799 10.986604 -0.00134 0.849191 0.528084 
29.3039 26.066799 10.986604 -0.004236 0.869371 0.494141 
29.8039 26.066799 10.986604 0.004365 0.869183 0.494472 
30.3039 26.066799 10.986604 0.002017 0.868959 0.49488 
30.8039 26.066799 10.986604 0.066443 0.866998 0.493862 
31.3039 26.062801 10.867005 0.176423 0.859784 0.479214 
31.8039 26.055798 10.627603 0.101417 0.85179 0.513973 
32.303902 26.055798 10.627603 0.178902 0.84277 0.507674 
32.803902 26.040798 10.148904 0.284566 0.861769 0.419973 
33.303902 26.032803 9.9096 0.22267 0.871035 0.437854 
33.803902 26.025806 9.670205 0.326787 0.840009 0.433122 
34.303902 26.010799 9.191499 0.380346 0.842473 0.381545 
34.803902 25.9958 8.712899 0.44191 0.827629 0.346042 
35.303902 25.972797 7.994798 0.311014 0.862486 0.399236 
35.803902 25.965794 7.755502 0.336179 0.848711 0.408256 
36.303902 25.942799 7.0374 0.414514 0.828341 0.376867 
36.803902 25.931797 6.678399 0.358455 0.853311 0.378644 
37.303902 25.9128 6.079995 0.430472 0.840665 0.328598 
37.803902 25.893803 5.481698 0.489411 0.810053 0.322942 
38.303902 25.867802 4.644006 0.400895 0.842355 0.360168 
38.803902 25.8568 4.284898 0.378915 0.845401 0.376458 
39.303902 25.833805 3.566903 0.503924 0.801873 0.32103 
39.803902 25.811802 2.848897 0.473693 0.812688 0.339343 
40.303902 25.792805 2.250504 0.433828 0.822516 0.367778 
40.803902 25.777805 1.771802 0.445949 0.827336 0.341532 
41.303902 25.750805 0.934102 0.503492 0.827953 0.246962 
41.803902 25.7178 -0.143001 0.483944 0.853148 0.194773 
42.303902 25.668804 -1.698699 0.546283 0.800273 0.247262 
42.803902 25.623798 -3.134799 0.429106 0.804992 0.409702 
43.303902 25.615795 -3.374099 0.354988 0.844185 0.401665 
43.803902 25.570797 -4.810199 0.485597 0.836711 0.253201 
44.303902 25.5518 -5.408599 0.528438 0.803964 0.272754 
44.803902 25.4958 -7.2037 0.684628 0.706225 0.180362 
-73.446098 25.081799 -33.6894 -0.869084 0.190488 0.456516 
-72.946098 25.121799 -32.800301 -0.898396 0.163631 0.407565 
