-3.122920 -64.991898 31.729183 0.038625 -0.893212 0.447975
-2.622920 -64.978401 31.856079 0.042577 -0.889090 0.455748
-2.122920 -65.005402 31.602379 0.190036 -0.886048 0.422855
-1.622920 -65.045998 31.221779 0.199288 -0.894942 0.399203
-1.122920 -65.072998 30.968079 0.198375 -0.908873 0.366875
-0.622920 -65.154099 30.206982 0.017005 -0.935553 0.352776
-0.122920 -65.086601 30.841183 -0.277289 -0.895586 0.347903
7.377080 -66.762802 15.111178 0.679684 -0.235029 0.694832
7.877080 -66.816902 14.603780 0.337206 -0.350567 0.873725
8.377080 -66.816902 14.603780 0.010217 -0.376738 0.926264
8.877080 -66.816902 14.603780 0.157485 -0.435406 0.886352
9.377080 -66.857399 14.223180 0.354101 -0.541560 0.762447
9.877080 -66.870903 14.096280 0.188697 -0.563929 0.803976
10.377080 -66.884499 13.969480 0.317359 -0.456498 0.831199
10.877080 -66.911499 13.715779 0.420495 -0.290648 0.859481
11.377080 -66.938499 13.461980 0.376979 -0.361214 0.852884
11.877080 -66.965599 13.208280 0.395051 -0.409741 0.822220
12.377080 -66.992599 12.954581 0.395091 -0.409683 0.822231
12.877080 -67.019600 12.700879 0.175830 -0.446656 0.877258
13.377080 -67.019600 12.700879 0.000000 -0.445948 0.895059
13.877080 -67.019600 12.700879 0.203447 -0.427688 0.880734
14.377080 -67.046700 12.447179 0.175808 -0.446569 0.877307
14.877080 -67.046700 12.447179 0.087646 -0.466982 0.879912
15.377080 -67.060204 12.320380 0.202137 -0.488797 0.848657
15.877080 -67.073700 12.193479 0.108423 -0.471358 0.875252
16.377081 -67.073700 12.193479 0.154940 -0.480601 0.863143
16.877081 -67.100700 11.939780 0.253960 -0.554904 0.792203
17.377081 -67.114296 11.812881 0.097434 -0.565621 0.818889
17.877081 -67.114296 11.812881 0.000000 -0.546419 0.837512
18.377081 -67.114296 11.812881 0.188993 -0.530365 0.826435
18.877081 -67.141304 11.559180 0.160739 -0.544569 0.823169
19.377081 -67.141304 11.559180 -0.085305 -0.524990 0.846822
19.877081 -67.127800 11.686080 0.111312 -0.525761 0.843318
20.377081 -67.181900 11.178679 0.400904 -0.646668 0.648919
20.877081 -67.208900 10.924880 0.240316 -0.652111 0.719027
21.377081 -67.222397 10.798079 0.262904 -0.691952 0.672372
21.877081 -67.276497 10.290679 0.264761 -0.758585 0.595357
22.377081 -67.290001 10.163779 0.072021 -0.743252 0.665124
22.877081 -67.290001 10.163779 0.074900 -0.714992 0.695109
-31.372919 -66.135399 14.222779 -0.269977 -0.653597 0.707052
-30.872919 -66.108498 14.476480 -0.248875 -0.686327 0.683386
-30.372919 -66.095001 14.603379 -0.156544 -0.704944 0.691771
-29.872919 -66.081604 14.730180 -0.097309 -0.745557 0.659299
-29.372919 -66.081604 14.730180 -0.152858 -0.783460 0.602350
-28.872919 -66.041298 15.110681 -0.171039 -0.778053 0.604466
-28.372919 -66.041298 15.110681 -0.117685 -0.754722 0.645403
-27.872919 -66.014397 15.364379 -0.220967 -0.706725 0.672096
-27.372919 -66.000999 15.491281 -0.148100 -0.761500 0.631018
-26.872919 -65.987503 15.618079 -0.190101 -0.779694 0.596607
-26.372919 -65.960701 15.871779 -0.207605 -0.737332 0.642838
-25.872919 -65.947197 15.998679 -0.142676 -0.751971 0.643571
-25.372921 -65.933800 16.125481 -0.081939 -0.750690 0.655554
-24.872919 -65.933800 16.125481 -0.156387 -0.721872 0.674125
-24.372919 -65.906898 16.379181 0.031018 -0.726763 0.686188
-23.872919 -65.933800 16.125481 0.268553 -0.717068 0.643190
-23.372919 -65.960701 15.871779 0.292000 -0.701702 0.649885
-13.372920 -64.536201 29.317581 0.005867 -0.909302 0.416096
-12.872920 -64.536201 29.317581 0.067200 -0.907823 0.413933
-12.372920 -64.563095 29.063881 0.159789 -0.897932 0.410104
-11.872920 -64.442101 30.205479 -0.367812 -0.887186 0.278596
-11.372920 -64.321198 31.347179 -0.000294 -0.921606 0.388126
-10.872920 -64.334602 31.220280 -0.093181 -0.903203 0.418976
-10.372920 -64.294296 31.600880 -0.161965 -0.873886 0.458356
-9.872920 -64.280800 31.727680 -0.174565 -0.874096 0.453302
-9.372920 -64.200195 32.488781 -0.215465 -0.884749 0.413273
-8.872920 -64.173302 32.742481 -0.133968 -0.878702 0.458188
-8.372920 -64.159897 32.869282 -0.098765 -0.886719 0.451636
-7.872920 -64.146500 32.996178 -0.037479 -0.889689 0.455025
-7.372920 -64.146500 32.996178 -0.006334 -0.878806 0.477137
-6.872920 -64.146500 32.996178 -0.083588 -0.876489 0.474110
-6.372920 -64.119598 33.249878 -0.080439 -0.879812 0.468466
-5.872920 -64.119598 33.249878 -0.092605 -0.876388 0.472620
-5.372920 -64.092697 33.503483 -0.086925 -0.874558 0.477067
-4.872920 -64.092697 33.503483 -0.102099 -0.854122 0.509953
-4.372920 -64.065796 33.757282 -0.065091 -0.845485 0.530016
-3.872920 -64.079300 33.630379 0.050588 -0.859191 0.509149
-3.372920 -64.079300 33.630379 0.052718 -0.853124 0.519038
-2.872920 -64.092697 33.503483 0.125296 -0.868247 0.480050
-2.372920 -64.119598 33.249878 0.019980 -0.894699 0.446222
-1.872920 -64.092697 33.503483 0.026097 -0.900409 0.434261
-1.372920 -64.119598 33.249878 0.020984 -0.905591 0.423633
-0.872920 -64.092697 33.503483 0.039294 -0.903911 0.425912
-0.372920 -64.132996 33.122982 0.187352 -0.893467 0.408186
0.127080 -64.159897 32.869282 0.000000 -0.909756 0.415143
0.627080 -64.132996 33.122982 -0.035493 -0.894523 0.445610
1.127080 -64.146500 32.996178 0.171569 -0.870917 0.460508
1.627080 -64.280800 31.727680 0.496400 -0.808898 0.315072
2.127080 -64.334602 31.220280 0.000000 -0.940752 0.339095
2.627080 -64.334602 31.220280 0.116916 -0.929286 0.350369
3.127080 -64.388298 30.712883 0.251637 -0.898914 0.358655
8.627080 -66.081604 14.730180 -0.180924 -0.166624 0.969279
9.127080 -66.068199 14.856980 -0.051075 -0.350458 0.935185
9.627080 -66.095001 14.603379 0.266115 -0.577330 0.771928
10.127080 -66.108498 14.476480 0.322600 -0.559806 0.763248
10.627080 -66.148804 14.095979 0.452447 -0.432529 0.779878
11.127080 -66.175697 13.842280 0.321936 -0.418502 0.849243
11.627080 -66.189095 13.715381 0.315267 -0.419850 0.851077
12.127080 -66.215996 13.461680 0.375830 -0.439341 0.815924
12.627080 -66.242897 13.207980 0.303690 -0.470516 0.828485
13.127080 -66.256302 13.081180 0.086572 -0.494749 0.864713
13.627080 -66.256302 13.081180 0.125450 -0.438719 0.889825
14.127080 -66.269798 12.954278 0.228790 -0.401200 0.886957
14.627080 -66.283195 12.827479 0.104204 -0.410770 0.905765
15.127080 -66.283195 12.827479 0.100274 -0.404982 0.908810
15.627080 -66.296600 12.700580 0.210952 -0.431233 0.877233
16.127081 -66.310097 12.573779 0.104173 -0.410741 0.905781
16.627081 -66.310097 12.573779 0.083803 -0.454326 0.886885
17.127081 -66.323502 12.446879 0.215633 -0.498672 0.839541
17.627081 -66.336899 12.320079 0.086842 -0.491139 0.866742
18.127081 -66.336899 12.320079 0.109114 -0.462657 0.879797
18.627081 -66.350403 12.193280 0.219026 -0.448564 0.866498
19.127081 -66.363800 12.066381 0.086917 -0.491066 0.866775
19.627081 -66.363800 12.066381 0.100430 -0.438530 0.893088
20.127081 -66.377296 11.939580 0.218259 -0.376822 0.900204
20.627081 -66.390701 11.812680 0.306677 -0.463833 0.831149
21.127081 -66.417603 11.558980 0.260609 -0.554245 0.790503
21.627081 -66.431000 11.432179 0.189112 -0.562386 0.804959
22.127081 -66.444496 11.305280 0.291897 -0.560113 0.775287
22.627081 -66.471298 11.051579 0.342735 -0.546822 0.763884
23.127081 -66.498199 10.797879 0.282307 -0.512696 0.810830
23.627081 -66.511597 10.671081 0.386886 -0.439722 0.810533
24.127081 -66.578804 10.036880 0.372653 -0.475813 0.796701
24.627081 -66.592300 9.909980 0.376793 -0.453970 0.807427
25.127081 -66.632599 9.529480 0.526705 -0.423801 0.736868
25.627081 -66.672897 9.148880 0.458704 -0.417232 0.784543
26.127081 -66.699799 8.895180 0.584183 -0.380421 0.716945
26.627081 -66.793900 8.007279 0.684992 -0.471249 0.555617
27.127081 -66.861000 7.373080 0.726410 -0.480862 0.491020
27.627081 -66.995399 6.104580 0.732373 -0.544706 0.408566
-35.122921 -65.586998 12.573480 -0.519626 -0.629015 0.578212
-34.622921 -65.533501 13.080878 -0.517820 -0.614626 0.595060
-34.122921 -65.480103 13.588281 -0.507452 -0.580081 0.637180
-33.622921 -65.439995 13.968780 -0.398959 -0.588462 0.703238
-33.122921 -65.413300 14.222480 -0.390920 -0.566365 0.725542
-32.622921 -65.373199 14.602981 -0.439433 -0.542353 0.716067
-32.122921 -65.346497 14.856580 -0.133503 -0.617719 0.774984
-31.622919 -65.346497 14.856580 -0.182952 -0.660626 0.728080
-31.122919 -65.306404 15.237079 -0.276518 -0.678778 0.680293
-30.622919 -65.293098 15.363978 -0.219368 -0.676682 0.702836
-30.122919 -65.266396 15.617679 -0.243718 -0.677028 0.694431
-29.622919 -65.252998 15.744481 -0.222374 -0.690998 0.687801
-29.122919 -65.226303 15.998179 -0.236032 -0.659349 0.713826
-28.622919 -65.212898 16.124981 -0.101195 -0.690540 0.716181
-28.122919 -65.212898 16.124981 -0.140501 -0.723686 0.675676
-27.622919 -65.186203 16.378679 -0.228988 -0.711494 0.664334
-27.122919 -65.172798 16.505480 -0.158468 -0.717943 0.677824
-26.622919 -65.159500 16.632380 -0.209731 -0.706576 0.675843
-26.122919 -65.132797 16.886082 -0.145947 -0.709609 0.689314
-25.622919 -65.132797 16.886082 -0.083429 -0.710866 0.698362
-25.122919 -65.119400 17.012880 -0.158348 -0.718359 0.677411
-24.622919 -65.106102 17.139681 -0.000000 -0.723802 0.690008
-24.122919 -65.119400 17.012880 0.034200 -0.743749 0.667583
-23.622919 -65.106102 17.139681 -0.114569 -0.798255 0.591323
-22.622919 -64.985802 18.281281 0.102259 -0.810044 0.577384
-22.122919 -65.052605 17.647079 0.326481 -0.859741 0.392754
-15.122920 -63.716702 30.330879 -0.213981 -0.898982 0.382156
-14.622920 -63.676601 30.711483 -0.277085 -0.883047 0.378750
-14.122920 -63.583103 31.599281 0.019533 -0.907339 0.419946
-13.622920 -63.609802 31.345581 0.038418 -0.917325 0.396281
-13.122920 -63.596504 31.472481 -0.064968 -0.926593 0.370412
-12.622920 -63.436203 32.994583 -0.078367 -0.882794 0.463178
-12.122920 -63.422798 33.121380 -0.103754 -0.891438 0.441104
-11.622920 -63.409500 33.248180 -0.080792 -0.909383 0.408038
-11.122920 -63.396099 33.375084 -0.110662 -0.911031 0.397212
-10.622920 -63.369400 33.628681 -0.207534 -0.903406 0.375216
-10.122920 -63.289204 34.389782 -0.033963 -0.904330 0.425480
-9.622920 -63.302605 34.262878 0.080738 -0.898392 0.431710
-9.122920 -63.315903 34.136082 -0.076315 -0.905104 0.418286
-8.622920 -63.262501 34.643482 -0.211295 -0.887332 0.409874
-8.122920 -63.235802 34.897079 0.009143 -0.899470 0.436886
-7.622920 -63.275902 34.516582 0.058502 -0.895478 0.441245
-7.122920 -63.262501 34.643482 -0.085706 -0.897007 0.433629
-6.622920 -63.249100 34.770283 -0.044264 -0.897628 0.438526
-6.122920 -63.249100 34.770283 -0.102252 -0.896041 0.432036
-5.622920 -63.209103 35.150780 -0.042921 -0.901352 0.430955
-5.122920 -63.222401 35.023983 0.121470 -0.886854 0.445797
-4.622920 -63.249100 34.770283 -0.035439 -0.865896 0.498967
-4.122920 -63.222401 35.023983 -0.037748 -0.874482 0.483587
-3.622920 -63.235802 34.897079 -0.030655 -0.888275 0.458287
-3.122920 -63.195702 35.277679 -0.143800 -0.891865 0.428833
-2.622920 -63.182404 35.404480 -0.005128 -0.893169 0.449692
-2.122920 -63.195702 35.277679 0.128321 -0.887552 0.442477
-1.622920 -63.222401 35.023983 0.082123 -0.887064 0.454284
-1.122920 -63.222401 35.023983 0.051977 -0.878705 0.474527
-0.622920 -63.235802 34.897079 0.056380 -0.878474 0.474452
-0.122920 -63.235802 34.897079 0.002151 -0.883649 0.468144
0.377080 -63.235802 34.897079 0.096003 -0.873037 0.478110
0.877080 -63.262501 34.643482 0.043617 -0.869013 0.492863
1.377080 -63.249100 34.770283 0.013841 -0.855273 0.517993
1.877080 -63.262501 34.643482 0.212431 -0.837372 0.503667
2.377080 -63.329304 34.009281 0.364237 -0.842732 0.396402
2.877080 -63.396099 33.375084 0.126066 -0.879269 0.459340
3.377080 -63.396099 33.375084 0.099141 -0.858063 0.503884
3.877080 -63.436203 32.994583 0.364726 -0.821003 0.439236
4.377080 -63.503002 32.360382 0.363938 -0.840369 0.401657
4.877080 -63.569801 31.726181 0.290452 -0.866768 0.405403
5.377080 -63.609802 31.345581 0.349719 -0.856469 0.379681
5.877080 -63.783501 29.696777 0.495944 -0.827975 0.261721
8.877080 -65.346497 14.856580 -0.584484 -0.233124 0.777195
9.377080 -65.279701 15.490781 -0.179915 -0.672469 0.717925
9.877080 -65.279701 15.490781 0.185558 -0.713774 0.675348
10.377080 -65.319801 15.110280 0.432402 -0.676376 0.596276
10.877080 -65.373199 14.602981 0.480020 -0.624829 0.615768
11.377080 -65.413300 14.222480 0.393740 -0.556653 0.731509
11.877080 -65.439995 13.968780 0.288702 -0.537974 0.791982
12.377080 -65.453400 13.841880 0.279726 -0.557715 0.781478
12.877080 -65.480103 13.588281 0.178598 -0.551780 0.814642
13.377080 -65.480103 13.588281 0.173190 -0.518791 0.837175
13.877080 -65.506798 13.334579 0.278873 -0.467626 0.838783
14.377080 -65.520203 13.207681 0.194204 -0.487909 0.851017
14.877080 -65.533501 13.080878 0.099297 -0.457798 0.883494
15.377080 -65.533501 13.080878 0.119536 -0.434526 0.892691
15.877080 -65.546898 12.954080 0.196791 -0.454169 0.868910
16.377081 -65.560295 12.827180 0.009960 -0.427557 0.903934
16.877081 -65.546898 12.954080 0.043860 -0.438459 0.897680
17.377081 -65.573601 12.700379 0.185194 -0.480389 0.857280
17.877081 -65.573601 12.700379 0.104463 -0.468708 0.877155
18.377081 -65.586998 12.573480 0.210997 -0.431367 0.877156
18.877081 -65.600304 12.446679 0.119334 -0.438244 0.890899
19.377081 -65.600304 12.446679 0.110477 -0.413986 0.903554
19.877081 -65.613701 12.319880 0.200232 -0.407280 0.891084
20.377081 -65.627098 12.192981 0.211036 -0.431264 0.877197
20.877081 -65.640396 12.066178 0.221478 -0.457076 0.861411
21.377081 -65.653801 11.939380 0.221577 -0.456989 0.861432
21.877081 -65.667099 11.812480 0.286347 -0.425893 0.858266
22.377081 -65.693901 11.558780 0.395250 -0.409459 0.822265
22.877081 -65.720596 11.305181 0.395295 -0.409388 0.822280
23.377081 -65.747299 11.051480 0.380920 -0.398357 0.834393
23.877081 -65.774002 10.797778 0.482765 -0.391915 0.783161
24.377081 -65.814102 10.417279 0.436258 -0.444148 0.782567
24.877081 -65.840797 10.163581 0.457364 -0.417232 0.785325
25.377081 -65.880898 9.783078 0.548966 -0.389181 0.739712
25.877081 -65.920998 9.402579 0.537133 -0.353073 0.766047
26.377081 -65.960999 9.022079 0.654824 -0.315923 0.686585
26.877081 -66.027802 8.387879 0.689908 -0.398107 0.604598
27.377081 -66.094597 7.753680 0.733095 -0.415496 0.538455
27.877081 -66.188103 6.865780 0.772933 -0.416014 0.479069
28.377081 -66.281601 5.977881 0.879492 -0.272272 0.390335
28.877081 -66.455299 4.328981 0.878060 -0.336412 0.340349
-36.372921 -64.996696 11.304978 -0.730608 -0.522302 0.439787
-35.872921 -64.890396 12.319581 -0.744327 -0.486516 0.457471
-35.372921 -64.797501 13.207381 -0.617091 -0.569043 0.543497
-34.872921 -64.744400 13.714780 -0.492645 -0.604733 0.625779
-34.372921 -64.704498 14.095181 -0.461163 -0.611581 0.642882
-33.872921 -64.664696 14.475680 -0.383362 -0.600598 0.701652
-33.372921 -64.638100 14.729379 -0.336197 -0.573914 0.746723
-32.872921 -64.611603 14.983079 -0.433841 -0.527127 0.730698
-32.372921 -64.571701 15.363481 -0.326607 -0.566974 0.756219
-31.872919 -64.558502 15.490380 -0.290645 -0.605108 0.741194
-31.372919 -64.518600 15.870879 -0.300484 -0.617619 0.726813
-30.872919 -64.505302 15.997680 -0.184652 -0.629478 0.754759
-30.372919 -64.492104 16.124481 -0.254550 -0.623077 0.739581
-29.872919 -64.465500 16.378181 -0.254484 -0.623156 0.739536
-29.372919 -64.452202 16.504980 -0.184716 -0.629356 0.754845
-28.872919 -64.438904 16.631781 -0.250129 -0.631592 0.733844
-28.372919 -64.412399 16.885479 -0.215921 -0.668750 0.711443
-27.872919 -64.399101 17.012281 -0.244934 -0.665870 0.704716
-27.372919 -64.372498 17.265982 -0.222647 -0.653389 0.723541
-26.872919 -64.359299 17.392780 -0.179092 -0.655550 0.733608
-26.372919 -64.346001 17.519581 -0.174762 -0.662027 0.728820
-25.872919 -64.332703 17.646481 -0.159571 -0.665918 0.728759
-25.372921 -64.319397 17.773279 -0.230128 -0.695947 0.680220
-24.872919 -64.292900 18.026981 -0.127677 -0.698231 0.704395
-24.372919 -64.292900 18.026981 -0.148673 -0.748747 0.645968
-23.872919 -64.252998 18.407480 -0.356485 -0.782217 0.510935
-23.372919 -64.199898 18.914782 -0.187534 -0.805901 0.561565
-22.872919 -64.199898 18.914782 -0.090921 -0.763127 0.639821
-22.372919 -64.186600 19.041580 -0.262503 -0.711889 0.651388
-21.872919 -64.146797 19.422081 -0.244617 -0.834583 0.493594
-21.372919 -64.120201 19.675779 -0.209059 -0.881774 0.422810
-20.872919 -64.014000 20.690382 -0.390357 -0.846844 0.361216
-20.372919 -63.934299 21.451380 -0.414892 -0.801481 0.430689
-16.372919 -62.885204 31.470982 0.053929 -0.913604 0.403014
-15.872920 -62.898502 31.344082 -0.022217 -0.921579 0.387555
-15.372920 -62.779003 32.485580 -0.204994 -0.902952 0.377697
-14.872920 -62.752399 32.739281 -0.205942 -0.898998 0.386510
-14.372920 -62.699299 33.246582 -0.217207 -0.885518 0.410705
-13.872920 -62.672802 33.500183 -0.216966 -0.887889 0.405683
-13.372920 -62.606403 34.134384 -0.299278 -0.887803 0.349626
-12.872920 -62.553303 34.641682 0.065465 -0.885294 0.460401
-12.372920 -62.579800 34.388081 -0.018540 -0.879381 0.475758
-11.872920 -62.486904 35.275883 -0.290944 -0.874173 0.388811
-11.372920 -62.447002 35.656380 -0.105110 -0.893180 0.437243
-10.872920 -62.447002 35.656380 -0.115985 -0.898662 0.423030
-10.372920 -62.380600 36.290482 -0.039703 -0.876692 0.479411
-9.872920 -62.393902 36.163681 -0.048789 -0.885223 0.462601
-9.372920 -62.340801 36.670982 -0.121412 -0.909146 0.398386
-8.872920 -62.340801 36.670982 0.032007 -0.915728 0.400522
-8.372920 -62.354103 36.544178 -0.009883 -0.908467 0.417840
-7.872920 -62.340801 36.670982 -0.142701 -0.903545 0.404034
-7.372920 -62.287701 37.178280 -0.100557 -0.916517 0.387150
-6.872920 -62.287701 37.178280 -0.086751 -0.918428 0.385959
-6.372920 -62.247803 37.558781 -0.044853 -0.918148 0.393691
-5.872920 -62.261101 37.431980 0.108597 -0.911196 0.397402
-5.372920 -62.287701 37.178280 0.032241 -0.917300 0.396889
-4.872920 -62.274399 37.305080 -0.074583 -0.912280 0.402718
-4.372920 -62.261101 37.431980 -0.032441 -0.900525 0.433593
-3.872920 -62.261101 37.431980 0.043431 -0.893471 0.447016
-3.372920 -62.274399 37.305080 0.113219 -0.897650 0.425918
-2.872920 -62.300903 37.051483 0.024539 -0.903748 0.427362
-2.372920 -62.287701 37.178280 0.008579 -0.900993 0.433749
-1.872920 -62.300903 37.051483 0.085120 -0.896887 0.433991
-1.372920 -62.314201 36.924679 0.090458 -0.893763 0.439324
-0.872920 -62.327499 36.797783 0.129641 -0.887575 0.442045
-0.372920 -62.354103 36.544178 0.131052 -0.878252 0.459891
0.127080 -62.367302 36.417381 0.050722 -0.861023 0.506030
0.627080 -62.367302 36.417381 0.131070 -0.847443 0.514452
1.127080 -62.407200 36.036880 0.176388 -0.844721 0.505306
1.627080 -62.420502 35.909981 0.171203 -0.831709 0.528156
2.127080 -62.447002 35.656380 0.224440 -0.812524 0.537988
2.627080 -62.473602 35.402679 0.231407 -0.823206 0.518442
3.127080 -62.500099 35.148979 0.296486 -0.831296 0.470152
3.627080 -62.566502 34.514881 0.205879 -0.825410 0.525654
4.127080 -62.579800 34.388081 0.292276 -0.789591 0.539556
4.627080 -62.646202 33.753880 0.263098 -0.797437 0.543023
5.127080 -62.659504 33.627079 0.245975 -0.799835 0.547504
5.627080 -62.725903 32.992878 0.449346 -0.777091 0.440703
6.127080 -62.792301 32.358784 0.494011 -0.771892 0.400170
6.627080 -62.911800 31.217278 0.301514 -0.856872 0.418161
7.127080 -62.938400 30.963577 0.331992 -0.835361 0.438124
7.627080 -63.097702 29.441677 0.718627 -0.631359 0.291479
9.627080 -64.438904 16.631781 0.268182 -0.802672 0.532725
10.127080 -64.478798 16.251381 0.318689 -0.774509 0.546419
10.627080 -64.518600 15.870879 0.324152 -0.741307 0.587698
11.127080 -64.545197 15.617179 0.429486 -0.708008 0.560594
11.627080 -64.624901 14.856179 0.401694 -0.682259 0.610872
12.127080 -64.651398 14.602580 0.313848 -0.650072 0.692030
12.627080 -64.678001 14.348880 0.317203 -0.634066 0.705225
13.127080 -64.704498 14.095181 0.240461 -0.602419 0.761098
13.627080 -64.717796 13.968379 0.196799 -0.585910 0.786117
14.127080 -64.731102 13.841580 0.098055 -0.620290 0.778220
14.627080 -64.731102 13.841580 0.141093 -0.635519 0.759084
15.127080 -64.757698 13.587880 0.250151 -0.574957 0.779005
15.627080 -64.770897 13.461080 0.108477 -0.540028 0.834627
16.127081 -64.770897 13.461080 0.176110 -0.537639 0.824578
16.627081 -64.797501 13.207381 0.037935 -0.484251 0.874106
17.127081 -64.784203 13.334279 0.010363 -0.492003 0.870532
17.627081 -64.797501 13.207381 0.186803 -0.513739 0.837363
18.127081 -64.810799 13.080579 0.202150 -0.489261 0.848386
18.627081 -64.824097 12.953780 0.202187 -0.489244 0.848388
19.127081 -64.837296 12.826980 0.191591 -0.463709 0.865024
19.627081 -64.850601 12.700080 0.109194 -0.463020 0.879596
20.127081 -64.850601 12.700080 0.113346 -0.494499 0.861756
20.627081 -64.863899 12.573279 0.202238 -0.489119 0.848447
21.127081 -64.877197 12.446380 0.275945 -0.481493 0.831877
21.627081 -64.903702 12.192779 0.291332 -0.443406 0.847654
22.127081 -64.917000 12.065980 0.276491 -0.468587 0.839034
22.627081 -64.943596 11.812280 0.372844 -0.492508 0.786399
23.127081 -64.970100 11.558579 0.294963 -0.508191 0.809159
23.627081 -64.983398 11.431781 0.345150 -0.526292 0.777103
24.127081 -65.023201 11.051280 0.495312 -0.480896 0.723467
24.627081 -65.063095 10.670779 0.428916 -0.484986 0.762115
25.127081 -65.089600 10.417178 0.532411 -0.416012 0.737205
25.627081 -65.142799 9.909881 0.583639 -0.363349 0.726184
26.127081 -65.182602 9.529379 0.604625 -0.330707 0.724611
26.627081 -65.235703 9.021979 0.690806 -0.268286 0.671424
27.127081 -65.288803 8.514680 0.658432 -0.352418 0.665033
27.627081 -65.355202 7.880580 0.801582 -0.284631 0.525786
28.127081 -65.448204 6.992780 0.848676 -0.234505 0.474084
28.627081 -65.567703 5.851281 0.890084 -0.240895 0.386936
29.127081 -65.713799 4.456180 0.918227 -0.243168 0.312615
-37.122921 -64.312401 10.924281 -0.765907 -0.402937 0.501027
-36.622921 -64.220001 11.812081 -0.782922 -0.367748 0.501792
-36.122921 -64.127602 12.699780 -0.820912 -0.346503 0.453915
-35.622921 -64.022003 13.714379 -0.681259 -0.471035 0.560368
-35.122921 -63.969204 14.221681 -0.573031 -0.500786 0.648729
-34.622921 -63.916401 14.728978 -0.497655 -0.479324 0.722903
-34.122921 -63.890003 14.982579 -0.372156 -0.495044 0.785131
-33.622921 -63.863602 15.236279 -0.295283 -0.509824 0.808015
-33.122921 -63.850399 15.363080 -0.365774 -0.540839 0.757432
-32.622921 -63.797600 15.870379 -0.375623 -0.586582 0.717516
-32.122921 -63.784401 15.997180 -0.301084 -0.610447 0.732600
-31.622919 -63.744804 16.377680 -0.318873 -0.605030 0.729560
-31.122919 -63.731602 16.504482 -0.246854 -0.607231 0.755205
-30.622919 -63.705204 16.758080 -0.254579 -0.623419 0.739282
-30.122919 -63.692001 16.884981 -0.254546 -0.623449 0.739268
-29.622919 -63.665604 17.138580 -0.313875 -0.621004 0.718217
-29.122919 -63.639202 17.392281 -0.250138 -0.631895 0.733580
-28.622919 -63.626003 17.519081 -0.178816 -0.613755 0.768980
-28.122919 -63.612801 17.645880 -0.250458 -0.621259 0.742501
-27.622919 -63.586403 17.899481 -0.163980 -0.630228 0.758896
-27.122919 -63.586403 17.899481 -0.161451 -0.629665 0.759905
-26.622919 -63.560001 18.153181 -0.247003 -0.663149 0.706557
-26.122919 -63.546799 18.279982 -0.209687 -0.701537 0.681085
-25.622919 -63.520401 18.533581 -0.238675 -0.712157 0.660202
-25.122919 -63.507198 18.660480 -0.238709 -0.733866 0.635971
-24.622919 -63.454403 19.167780 -0.334888 -0.761276 0.555256
-24.122919 -63.428001 19.421379 -0.279656 -0.746259 0.604061
-23.622919 -63.401604 19.674980 -0.283408 -0.742832 0.606532
-23.122919 -63.375202 19.928680 -0.285148 -0.805151 0.520022
-22.622919 -63.296001 20.689581 -0.367869 -0.844359 0.389526
-22.122919 -63.243198 21.196880 -0.353197 -0.859494 0.369488
-21.622919 -63.111202 22.465080 0.179582 -0.753193 0.632812
-21.122919 -63.137604 22.211481 -0.044437 -0.679097 0.732702
-20.622919 -63.111202 22.465080 -0.348790 -0.566445 0.746650
-17.622919 -62.042004 32.737682 -0.264826 -0.865340 0.425505
-17.122919 -62.002403 33.118084 -0.281511 -0.868979 0.406973
-16.622919 -61.949600 33.625381 -0.271207 -0.879911 0.390132
-16.122919 -61.910000 34.005882 -0.235972 -0.884932 0.401513
-15.622920 -61.870399 34.386280 -0.253189 -0.870376 0.422304
-15.122920 -61.830799 34.766781 -0.210311 -0.884482 0.416487
-14.622920 -61.804401 35.020481 -0.223624 -0.889924 0.397527
-14.122920 -61.738403 35.654579 -0.345879 -0.863019 0.368193
-13.622920 -61.672401 36.288681 -0.133813 -0.882214 0.451434
-13.122920 -61.672401 36.288681 -0.093697 -0.889064 0.448092
-12.622920 -61.619602 36.795979 -0.188856 -0.884393 0.426829
-12.122920 -61.606400 36.922779 -0.133887 -0.887579 0.440770
-11.622920 -61.580002 37.176380 -0.195445 -0.884507 0.423614
-11.122920 -61.540401 37.556881 -0.111077 -0.886969 0.448272
-10.622920 -61.540401 37.556881 -0.093923 -0.883814 0.458313
-10.122920 -61.487602 38.064178 -0.291053 -0.877008 0.382290
-9.622920 -61.434803 38.571484 -0.220849 -0.880384 0.419703
-9.122920 -61.408401 38.825081 -0.133218 -0.882785 0.450494
-8.622920 -61.395203 38.951878 -0.007586 -0.891345 0.453263
-8.122920 -61.408401 38.825081 -0.047885 -0.895801 0.441867
-7.622920 -61.382000 39.078682 -0.135098 -0.879232 0.456837
-7.122920 -61.368801 39.205578 0.000687 -0.874234 0.485505
-6.622920 -61.382000 39.078682 -0.035100 -0.868135 0.495085
-6.122920 -61.355602 39.332382 -0.089389 -0.876741 0.472584
-5.622920 -61.355602 39.332382 -0.040478 -0.886980 0.460031
-5.122920 -61.342400 39.459183 0.033986 -0.885685 0.463041
-4.622920 -61.368801 39.205578 0.162142 -0.884514 0.437430
-4.122920 -61.395203 38.951878 -0.000019 -0.902776 0.430112
-3.622920 -61.355602 39.332382 -0.041066 -0.896417 0.441306
-3.122920 -61.368801 39.205578 0.046687 -0.888811 0.455890
-2.622920 -61.368801 39.205578 0.084824 -0.885722 0.456400
-2.122920 -61.395203 38.951878 0.084281 -0.885424 0.457079
-1.622920 -61.395203 38.951878 0.097865 -0.887731 0.449840
-1.122920 -61.434803 38.571484 0.165197 -0.874651 0.455736
-0.622920 -61.448002 38.444679 0.163601 -0.870229 0.464690
-0.122920 -61.487602 38.064178 0.258442 -0.860542 0.438947
0.377080 -61.527199 37.683681 0.177835 -0.849424 0.496843
0.877080 -61.540401 37.556881 0.065585 -0.855625 0.513424
1.377080 -61.540401 37.556881 0.121691 -0.865871 0.485241
1.877080 -61.580002 37.176380 0.240400 -0.845810 0.476249
2.377080 -61.606400 36.922779 0.213518 -0.841127 0.496906
2.877080 -61.632801 36.669083 0.269393 -0.818403 0.507587
3.377080 -61.672401 36.288681 0.425529 -0.763451 0.485868
3.877080 -61.738403 35.654579 0.450767 -0.735708 0.505513
4.377080 -61.791203 35.147282 0.496177 -0.690861 0.525852
4.877080 -61.844002 34.639984 0.326995 -0.665368 0.671088
5.377080 -61.857201 34.513180 0.328676 -0.626055 0.707126
5.877080 -61.923203 33.879082 0.507293 -0.677044 0.533166
6.377080 -61.976002 33.371780 0.483516 -0.714219 0.506067
6.877080 -62.042004 32.737682 0.470674 -0.731315 0.493603
7.377080 -62.094799 32.230377 0.483206 -0.733127 0.478578
7.877080 -62.266403 30.581680 0.411620 -0.811214 0.415331
8.377080 -62.306004 30.201180 0.436205 -0.799456 0.413032
9.377080 -63.282803 20.816380 0.000000 -0.549357 0.835588
9.877080 -63.282803 20.816380 -0.070733 -0.567590 0.820267
10.377080 -63.560001 18.153181 0.782819 -0.302384 0.543837
10.877080 -63.692001 16.884981 0.533647 -0.702846 0.470349
11.377080 -63.757999 16.250881 0.540765 -0.690660 0.480169
11.877080 -63.824001 15.616778 0.436833 -0.712318 0.549345
12.377080 -63.863602 15.236279 0.287976 -0.696224 0.657528
12.877080 -63.876801 15.109481 0.267155 -0.681196 0.681615
13.377080 -63.916401 14.728978 0.285735 -0.666856 0.688229
13.877080 -63.929604 14.602180 0.170721 -0.649881 0.740614
14.377080 -63.942802 14.475280 0.082034 -0.640285 0.763745
14.877080 -63.942802 14.475280 0.206668 -0.633604 0.745543
15.377080 -63.982403 14.094878 0.309809 -0.588477 0.746802
15.877080 -63.995602 13.968080 0.186397 -0.552198 0.812609
16.377081 -64.008804 13.841180 0.210511 -0.509156 0.834533
16.877081 -64.022003 13.714379 0.068096 -0.519600 0.851692
17.377081 -64.022003 13.714379 0.113383 -0.494860 0.861544
17.877081 -64.035194 13.587581 0.186744 -0.514005 0.837213
18.377081 -64.048401 13.460780 0.210180 -0.508425 0.835062
18.877081 -64.061600 13.333980 0.202286 -0.489391 0.848279
19.377081 -64.074799 13.207078 0.113462 -0.494722 0.861613
19.877081 -64.074799 13.207078 0.086616 -0.495038 0.864543
20.377081 -64.087997 13.080279 0.202206 -0.489368 0.848311
20.877081 -64.101196 12.953479 0.202226 -0.489350 0.848317
21.377081 -64.114395 12.826680 0.280660 -0.500394 0.819046
21.877081 -64.140800 12.572980 0.176182 -0.537547 0.824623
22.377081 -64.140800 12.572980 0.177364 -0.551372 0.815188
22.877081 -64.167198 12.319379 0.336459 -0.573430 0.746976
23.377081 -64.193604 12.065681 0.336537 -0.573512 0.746878
23.877081 -64.220001 11.812081 0.414797 -0.550886 0.724202
24.377081 -64.259598 11.431579 0.419027 -0.564794 0.710932
24.877081 -64.286003 11.177979 0.466626 -0.563368 0.681819
25.377081 -64.351997 10.543880 0.606026 -0.455633 0.652021
25.877081 -64.391602 10.163379 0.554233 -0.456391 0.696084
26.377081 -64.444397 9.656079 0.642934 -0.421116 0.639763
26.877081 -64.510399 9.021979 0.549861 -0.436778 0.711954
27.377081 -64.536804 8.768379 0.537465 -0.471945 0.698856
27.877081 -64.655602 7.626980 0.868121 -0.178032 0.463325
28.377081 -64.748001 6.739180 0.863988 -0.187741 0.467202
28.877081 -64.853600 5.724580 0.913411 -0.165933 0.371680
29.377081 -65.078003 3.568670 0.960173 0.006827 0.279323
-37.872921 -63.706402 9.782880 -0.925248 -0.203861 0.319933
-37.372921 -63.575203 11.050979 -0.805662 -0.309446 0.505126
-36.872921 -63.496399 11.811879 -0.769671 -0.273750 0.576774
-36.372921 -63.430801 12.445880 -0.827057 -0.227786 0.513897
-35.872921 -63.286503 13.840878 -0.816638 -0.281977 0.503578
-35.372921 -63.220901 14.474980 -0.611644 -0.370559 0.698983
-34.872921 -63.181499 14.855380 -0.563214 -0.338781 0.753669
-34.372921 -63.142200 15.235778 -0.466304 -0.342716 0.815541
-33.872921 -63.115902 15.489480 -0.408801 -0.351488 0.842222
-33.372921 -63.089703 15.743079 -0.491358 -0.454972 0.742676
-32.872921 -63.037201 16.250280 -0.534668 -0.496752 0.683643
-32.372921 -62.997902 16.630779 -0.425515 -0.526802 0.735810
-31.872919 -62.971600 16.884380 -0.358676 -0.558758 0.747757
-31.372919 -62.945400 17.137980 -0.261620 -0.562983 0.783968
-30.872919 -62.932301 17.264879 -0.277747 -0.594659 0.754478
-30.372919 -62.906002 17.518480 -0.246844 -0.607605 0.754906
-29.872919 -62.892902 17.645281 -0.263373 -0.587258 0.765351
-29.372919 -62.866604 17.898880 -0.269446 -0.541351 0.796454
-28.872919 -62.853500 18.025681 -0.202659 -0.554380 0.807213
-28.372919 -62.840401 18.152481 -0.259166 -0.587116 0.766895
-27.872919 -62.814201 18.406181 -0.266914 -0.602538 0.752133
-27.372919 -62.800999 18.532980 -0.228784 -0.626945 0.744713
-26.872919 -62.774799 18.786581 -0.385410 -0.619426 0.683938
-26.372919 -62.735401 19.167080 -0.291437 -0.647138 0.704469
-25.872919 -62.722301 19.293880 -0.292956 -0.688805 0.663117
-25.372921 -62.683002 19.674280 -0.380320 -0.715227 0.586351
-24.872919 -62.643604 20.054682 -0.333175 -0.705737 0.625244
-24.372919 -62.617401 20.308380 -0.293633 -0.725373 0.622587
-23.872919 -62.591103 20.561979 -0.382117 -0.741642 0.551321
-23.372919 -62.486202 21.576481 -0.548100 -0.705530 0.449237
-22.872919 -62.420601 22.210581 -0.550682 -0.709033 0.440479
-22.372919 -62.328701 23.098280 -0.459420 -0.716624 0.524769
-21.872919 -62.289303 23.478682 -0.106792 -0.578534 0.808637
-21.372919 -62.289303 23.478682 0.277104 -0.468447 0.838911
-20.872919 -62.368103 22.717781 0.330941 -0.588485 0.737674
-18.872919 -61.305302 32.989677 -0.423986 -0.804134 0.416659
-18.372919 -61.226604 33.750580 -0.434158 -0.793421 0.426603
-17.872919 -61.174103 34.257778 -0.373636 -0.805247 0.460406
-17.372919 -61.121601 34.765079 -0.292992 -0.814864 0.500152
-16.872919 -61.095402 35.018681 -0.331259 -0.801837 0.497317
-16.372919 -61.016701 35.779583 -0.224153 -0.803424 0.551603
-15.872920 -61.016701 35.779583 -0.144154 -0.844079 0.516479
-15.372920 -60.964203 36.286781 -0.340365 -0.853975 0.393547
-14.872920 -60.898602 36.920879 -0.326059 -0.855690 0.401846
-14.372920 -60.846104 37.428181 -0.259234 -0.857784 0.443851
-13.872920 -60.819901 37.681778 -0.199968 -0.857786 0.473516
-13.372920 -60.793602 37.935383 -0.189927 -0.868383 0.458082
-12.872920 -60.767403 38.188980 -0.258647 -0.870744 0.418218
-12.372920 -60.701801 38.823082 -0.236633 -0.889026 0.391965
-11.872920 -60.675503 39.076679 -0.154881 -0.903848 0.398837
-11.372920 -60.649303 39.330379 -0.211170 -0.896415 0.389677
-10.872920 -60.596802 39.837582 -0.201029 -0.895912 0.396143
-10.372920 -60.570602 40.091183 -0.122640 -0.889810 0.439542
-9.872920 -60.557404 40.218079 -0.047611 -0.874904 0.481950
-9.372920 -60.557404 40.218079 -0.056846 -0.867867 0.493533
-8.872920 -60.544300 40.344879 -0.101836 -0.860790 0.498668
-8.372920 -60.531204 40.471684 -0.051412 -0.867233 0.495241
-7.872920 -60.531204 40.471684 -0.055371 -0.870324 0.489357
-7.372920 -60.518101 40.598480 -0.049562 -0.863360 0.502148
-6.872920 -60.518101 40.598480 -0.044920 -0.866628 0.496929
-6.372920 -60.505005 40.725281 -0.102440 -0.863595 0.493669
-5.872920 -60.491802 40.852077 -0.052609 -0.862587 0.503165
-5.372920 -60.491802 40.852077 -0.003977 -0.866552 0.499071
-4.872920 -60.491802 40.852077 -0.039960 -0.868682 0.493756
-4.372920 -60.478703 40.978882 -0.048033 -0.869002 0.492471
-3.872920 -60.478703 40.978882 0.048275 -0.866895 0.496149
-3.372920 -60.491802 40.852077 0.107673 -0.857122 0.503735
-2.872920 -60.505005 40.725281 0.048697 -0.862784 0.503223
-2.372920 -60.505005 40.725281 0.093178 -0.867019 0.489484
-1.872920 -60.531204 40.471684 0.089300 -0.868793 0.487057
-1.372920 -60.531204 40.471684 0.058061 -0.862461 0.502782
-0.872920 -60.544300 40.344879 0.212459 -0.847758 0.485970
-0.372920 -60.596802 39.837582 0.192776 -0.849848 0.490506
0.127080 -60.609901 39.710781 0.153288 -0.852667 0.499462
0.627080 -60.636200 39.457180 0.224687 -0.860334 0.457538
1.127080 -60.675503 39.076679 0.164847 -0.863408 0.476815
1.627080 -60.688702 38.949879 0.166670 -0.844004 0.509783
2.127080 -60.714901 38.696281 0.224817 -0.826734 0.515721
2.627080 -60.741100 38.442680 0.290940 -0.816515 0.498655
3.127080 -60.793602 37.935383 0.355886 -0.816052 0.455416
3.627080 -60.846104 37.428181 0.439377 -0.784814 0.437052
4.127080 -60.937901 36.540482 0.437431 -0.756650 0.485938
4.627080 -60.977303 36.159981 0.459114 -0.738190 0.494258
5.127080 -61.069103 35.272278 0.513927 -0.635895 0.575774
5.627080 -61.108501 34.891880 0.463671 -0.555863 0.689946
6.127080 -61.147903 34.511383 0.488806 -0.558647 0.670061
6.627080 -61.187202 34.130981 0.479375 -0.616928 0.624179
7.127080 -61.239700 33.623779 0.526493 -0.656156 0.540616
7.627080 -61.305302 32.989677 0.471544 -0.673891 0.568785
8.127080 -61.344704 32.609180 0.497184 -0.680958 0.537685
8.627080 -61.449604 31.594780 0.565397 -0.737047 0.370255
9.127080 -61.751400 28.677979 0.808455 -0.554961 0.196007
9.627080 -62.512402 21.322880 -0.352329 -0.591273 0.725439
10.127080 -62.473000 21.703279 -0.460316 -0.587145 0.665860
10.627080 -62.866604 17.898880 0.556272 0.101906 0.824728
11.127080 -62.892902 17.645281 0.331188 -0.527115 0.782601
11.627080 -62.906002 17.518480 0.302325 -0.669612 0.678395
12.127080 -62.997902 16.630779 0.497182 -0.675703 0.544274
12.627080 -63.037201 16.250280 0.452028 -0.669672 0.589245
13.127080 -63.089703 15.743079 0.384034 -0.644631 0.661036
13.627080 -63.115902 15.489480 0.349540 -0.608722 0.712235
14.127080 -63.142200 15.235778 0.253929 -0.585391 0.769959
14.627080 -63.155300 15.108979 0.093960 -0.554417 0.826918
15.127080 -63.155300 15.108979 0.254746 -0.536667 0.804421
15.627080 -63.207802 14.601779 0.236686 -0.597392 0.766226
16.127081 -63.207802 14.601779 0.218437 -0.590289 0.777074
16.627081 -63.247101 14.221280 0.191987 -0.568300 0.800110
17.127081 -63.247101 14.221280 0.102342 -0.521382 0.847164
17.627081 -63.260303 14.094480 0.128313 -0.461132 0.878005
18.127081 -63.260303 14.094480 0.163453 -0.444983 0.880496
18.627081 -63.286503 13.840878 0.275931 -0.482025 0.831573
19.127081 -63.299599 13.714080 0.202274 -0.489620 0.848149
19.627081 -63.312702 13.587279 0.097741 -0.469865 0.877310
20.127081 -63.312702 13.587279 0.119396 -0.438699 0.890667
20.627081 -63.325901 13.460481 0.191502 -0.463981 0.864898
21.127081 -63.339005 13.333678 0.202349 -0.489488 0.848208
21.627081 -63.352100 13.206779 0.210335 -0.508431 0.835019
22.127081 -63.365204 13.079980 0.186835 -0.513936 0.837235
22.627081 -63.378403 12.953179 0.210218 -0.508382 0.835078
23.127081 -63.391499 12.826381 0.270452 -0.540486 0.796700
23.627081 -63.417698 12.572780 0.355336 -0.548117 0.757168
24.127081 -63.444000 12.319079 0.413573 -0.549286 0.726114
24.627081 -63.483303 11.938680 0.414853 -0.551030 0.724060
25.127081 -63.509602 11.685081 0.474134 -0.547790 0.689292
25.627081 -63.575203 11.050979 0.573725 -0.579106 0.579203
26.127081 -63.627602 10.543778 0.574478 -0.533710 0.620587
26.627081 -63.680103 10.036481 0.558677 -0.544188 0.625890
27.127081 -63.732601 9.529281 0.434573 -0.615407 0.657587
27.627081 -63.758801 9.275578 0.477637 -0.613615 0.628760
28.127081 -63.942501 7.500181 0.848708 -0.287563 0.443849
28.627081 -64.034401 6.612480 0.892978 -0.183602 0.410950
29.127081 -64.270500 4.329880 0.968463 0.014020 0.248762
29.627081 -64.428001 2.808130 0.962952 0.079129 0.257801
30.127081 -64.742897 -0.235400 0.965632 0.060450 0.252785
32.627079 -67.283096 -22.254620 0.967023 -0.065640 0.246084
33.127079 -67.517097 -24.281719 0.893116 -0.256917 0.369240
-41.122921 -65.020004 -9.010400 -0.543329 -0.432243 0.719694
-38.122921 -63.020603 9.402380 -0.939527 -0.162178 0.301640
-37.622921 -62.851101 11.050879 -0.869062 -0.212571 0.446705
-37.122921 -62.772900 11.811681 -0.771503 -0.278408 0.572077
-36.622921 -62.707699 12.445680 -0.775075 -0.292663 0.560007
-36.122921 -62.590302 13.586879 -0.898626 -0.151298 0.411802
-35.622921 -62.486000 14.601380 -0.706153 -0.220744 0.672771
-35.122921 -62.446800 14.981780 -0.571769 -0.259605 0.778258
-34.622921 -62.407703 15.362180 -0.509487 -0.270093 0.816990
-34.122921 -62.381599 15.615779 -0.500647 -0.345950 0.793518
-33.622921 -62.329502 16.122980 -0.600340 -0.456530 0.656637
-33.122921 -62.277302 16.630180 -0.509345 -0.434894 0.742587
-32.622921 -62.251202 16.883881 -0.468415 -0.451979 0.759146
-32.122921 -62.212101 17.264280 -0.423841 -0.499224 0.755735
-31.622919 -62.186005 17.517881 -0.398092 -0.537287 0.743536
-31.122919 -62.146904 17.898279 -0.312203 -0.574611 0.756539
-30.622919 -62.133900 18.025082 -0.200670 -0.547808 0.812181
-30.122919 -62.120804 18.151880 -0.194679 -0.534239 0.822611
-29.622919 -62.107803 18.278681 -0.218359 -0.529415 0.819780
-29.122919 -62.094700 18.405479 -0.266446 -0.528093 0.806303
-28.622919 -62.068703 18.659081 -0.350290 -0.535340 0.768575
-28.122919 -62.042603 18.912680 -0.355011 -0.549472 0.756338
-27.622919 -62.016502 19.166380 -0.269111 -0.582931 0.766662
-27.122919 -62.003502 19.293081 -0.320191 -0.605965 0.728206
-26.622919 -61.964298 19.673580 -0.432143 -0.611706 0.662621
-26.122919 -61.925201 20.053980 -0.431134 -0.643189 0.632796
-25.622919 -61.886101 20.434381 -0.385516 -0.646850 0.657999
-25.122919 -61.860004 20.687981 -0.378866 -0.668253 0.640233
-24.622919 -61.807800 21.195181 -0.465753 -0.695715 0.546859
-24.122919 -61.755703 21.702381 -0.533159 -0.661650 0.527220
-23.622919 -61.690502 22.336481 -0.630820 -0.591502 0.502187
-23.122919 -61.599201 23.224079 -0.609981 -0.569377 0.551120
-22.622919 -61.547001 23.731279 -0.336866 -0.394184 0.855067
-22.122919 -61.534004 23.858082 -0.093027 -0.319713 0.942937
-21.622919 -61.547001 23.731279 0.251498 -0.324873 0.911705
-20.122919 -60.542900 33.495277 -0.478481 -0.726893 0.492629
-19.622919 -60.477699 34.129284 -0.319746 -0.790789 0.521933
-19.122919 -60.451603 34.382881 -0.331470 -0.804265 0.493239
-18.622919 -60.386402 35.016983 -0.379434 -0.794088 0.474820
-18.122919 -60.347198 35.397381 -0.327533 -0.800955 0.501193
-17.622919 -60.308102 35.777779 -0.271956 -0.809859 0.519778
-17.122919 -60.282001 36.031384 -0.357074 -0.790410 0.497745
-16.622919 -60.216801 36.665382 -0.434877 -0.789428 0.433228
-16.122919 -60.112503 37.679878 -0.414576 -0.833538 0.365159
-15.622920 -60.047302 38.313881 -0.145430 -0.879175 0.453763
-15.122920 -60.047302 38.313881 -0.147253 -0.873504 0.464012
-14.622920 -59.995102 38.821079 -0.244284 -0.865006 0.438280
-14.122920 -59.969101 39.074680 -0.245974 -0.871370 0.424512
-13.622920 -59.903900 39.708679 -0.318024 -0.870521 0.375572
-13.122920 -59.851704 40.215981 -0.318008 -0.871729 0.372773
-12.622920 -59.786503 40.849983 -0.245842 -0.866703 0.434036
-12.122920 -59.760399 41.103580 -0.221470 -0.864030 0.452110
-11.622920 -59.721302 41.483982 -0.111651 -0.858773 0.500043
-11.122920 -59.721302 41.483982 -0.098058 -0.846860 0.522697
-10.622920 -59.695198 41.737579 -0.066148 -0.842646 0.534390
-10.122920 -59.708202 41.610779 -0.036931 -0.857006 0.513982
-9.622920 -59.682602 41.857681 -0.100724 -0.846279 0.523131
-9.122920 -59.682602 41.857681 -0.001620 -0.846844 0.531838
-8.622920 -59.682602 41.857681 -0.054108 -0.844431 0.532925
-8.122920 -59.669903 41.977779 -0.102845 -0.845148 0.524546
-7.622920 -59.657303 42.097778 -0.053938 -0.851603 0.521405
-7.122920 -59.657303 42.097778 -0.088600 -0.847945 0.522627
-6.622920 -59.632000 42.337883 -0.041582 -0.825446 0.562947
-6.122920 -59.644604 42.217884 -0.004133 -0.836341 0.548194
-5.622920 -59.632000 42.337883 -0.100444 -0.830886 0.547302
-5.122920 -59.619301 42.457981 -0.010632 -0.827603 0.561214
-4.622920 -59.632000 42.337883 0.053854 -0.825658 0.561595
-4.122920 -59.632000 42.337883 0.000000 -0.805372 0.592770
-3.622920 -59.632000 42.337883 0.083669 -0.818471 0.568422
-3.122920 -59.657303 42.097778 0.049128 -0.839476 0.541171
-2.622920 -59.644604 42.217884 0.023009 -0.811321 0.584147
-2.122920 -59.657303 42.097778 0.115291 -0.805222 0.581657
-1.622920 -59.669903 41.977779 0.156797 -0.817466 0.554224
-1.122920 -59.695198 41.737579 0.221340 -0.812503 0.539303
-0.622920 -59.721302 41.483982 0.266019 -0.811667 0.520029
-0.122920 -59.760399 41.103580 0.201517 -0.827030 0.524797
0.377080 -59.773399 40.976780 0.125161 -0.823110 0.553918
0.877080 -59.786503 40.849983 0.189912 -0.826086 0.530581
1.377080 -59.825600 40.469582 0.308209 -0.816172 0.488743
1.877080 -59.864700 40.089081 0.314350 -0.802236 0.507545
2.377080 -59.903900 39.708679 0.268939 -0.810372 0.520547
2.877080 -59.929901 39.455082 0.189378 -0.819282 0.541214
3.377080 -59.943001 39.328278 0.242206 -0.817682 0.522238
3.877080 -60.008202 38.694279 0.486045 -0.773592 0.406589
4.377080 -60.099503 37.806679 0.599063 -0.686648 0.411871
4.877080 -60.177704 37.045784 0.689419 -0.591651 0.417913
5.377080 -60.308102 35.777779 0.647476 -0.532766 0.544918
5.877080 -60.360302 35.270580 0.519432 -0.532420 0.668371
6.377080 -60.399403 34.890079 0.416866 -0.571295 0.706997
6.877080 -60.425503 34.636482 0.413322 -0.588940 0.694489
7.377080 -60.464603 34.256081 0.508731 -0.587723 0.629106
7.877080 -60.529804 33.622082 0.511727 -0.622949 0.591667
8.377080 -60.568905 33.241680 0.517679 -0.624220 0.585113
8.877080 -60.660202 32.354080 0.639403 -0.616103 0.459979
9.377080 -60.725403 31.719982 0.640112 -0.559071 0.526970
10.377080 -61.703499 22.209681 0.000000 -0.169958 0.985451
10.877080 -61.703499 22.209681 0.149112 -0.118249 0.981724
11.377080 -62.120804 18.151880 0.020504 -0.540261 0.841248
11.877080 -62.120804 18.151880 0.257851 -0.541287 0.800326
12.377080 -62.225101 17.137482 0.624372 -0.508508 0.592941
12.877080 -62.264301 16.757080 0.564929 -0.441248 0.697248
13.377080 -62.316399 16.249781 0.537188 -0.473563 0.697973
13.877080 -62.355602 15.869380 0.468168 -0.424466 0.775015
14.377080 -62.381599 15.615779 0.286924 -0.423338 0.859337
14.877080 -62.394703 15.488978 0.223097 -0.369608 0.902008
15.377080 -62.407703 15.362180 0.294103 -0.390424 0.872395
15.877080 -62.433804 15.108579 0.276575 -0.469515 0.838488
16.377081 -62.446800 14.981780 0.322168 -0.419034 0.848893
16.877081 -62.472904 14.728181 0.250066 -0.478808 0.841552
17.377081 -62.486000 14.601380 0.275922 -0.482371 0.831375
17.877081 -62.512001 14.347779 0.172484 -0.420011 0.890977
18.377081 -62.512001 14.347779 0.112494 -0.437049 0.892375
18.877081 -62.525101 14.220981 0.186803 -0.514402 0.836956
19.377081 -62.538101 14.094180 0.194852 -0.533266 0.823201
19.877081 -62.551201 13.967380 0.199381 -0.482688 0.852795
20.377081 -62.564201 13.840478 0.119521 -0.438866 0.890568
20.877081 -62.564201 13.840478 0.097719 -0.469948 0.877269
21.377081 -62.577301 13.713679 0.202306 -0.489706 0.848092
21.877081 -62.590302 13.586879 0.186879 -0.514237 0.837040
22.377081 -62.603302 13.460080 0.194867 -0.533107 0.823301
22.877081 -62.616402 13.333280 0.194891 -0.533052 0.823331
23.377081 -62.629402 13.206479 0.290809 -0.520584 0.802759
23.877081 -62.655502 12.952880 0.350786 -0.533810 0.769412
24.377081 -62.681602 12.699279 0.400880 -0.562786 0.722888
24.877081 -62.720703 12.318881 0.412861 -0.565480 0.713987
25.377081 -62.746799 12.065280 0.416661 -0.569786 0.708335
25.877081 -62.785900 11.684880 0.533136 -0.598070 0.598396
26.377081 -62.864201 10.923978 0.514955 -0.571272 0.639116
26.877081 -62.890202 10.670379 0.405247 -0.578000 0.708301
27.377081 -62.929401 10.289979 0.534846 -0.547086 0.643923
27.877081 -62.981503 9.782779 0.688237 -0.442659 0.574789
28.377081 -63.203201 7.627080 0.866929 -0.368328 0.335810
28.877081 -63.372803 5.978680 0.938646 -0.221746 0.264145
29.377081 -63.633602 3.442530 0.964358 0.040246 0.261522
29.877081 -63.933498 0.526040 0.894355 0.280904 0.348170
30.377081 -64.118103 -1.172430 0.968121 0.098534 0.230287
30.877081 -64.429100 -3.875170 0.922913 -0.035258 0.383390
32.377079 -66.403900 -21.037621 0.970586 0.064331 0.232002
32.877079 -66.637100 -23.064720 0.815384 -0.156745 0.557297
33.377079 -66.777000 -24.280918 0.877984 -0.297007 0.375408
33.877079 -66.948097 -25.767420 0.956693 -0.147329 0.251062
-41.872921 -64.502602 -10.901630 -0.956098 -0.021944 0.292226
-41.372921 -64.254601 -8.739440 -0.705508 -0.177424 0.686134
-40.872921 -64.208099 -8.334040 -0.681066 -0.221915 0.697785
-37.872921 -62.178902 10.543479 -0.944503 -0.094593 0.314589
-37.372921 -62.049301 11.811479 -0.829933 -0.225829 0.510110
-36.872921 -61.971500 12.572179 -0.765002 -0.246021 0.595185
-36.372921 -61.906700 13.206180 -0.837386 -0.161227 0.522293
-35.872921 -61.790100 14.347379 -0.853286 -0.080909 0.515127
-35.372921 -61.725300 14.981381 -0.654283 -0.131767 0.744682
-34.872921 -61.686401 15.361779 -0.609783 -0.186373 0.770344
-34.372921 -61.647503 15.742080 -0.620130 -0.308569 0.721265
-33.872921 -61.582699 16.376080 -0.618795 -0.392290 0.680589
-33.372921 -61.543800 16.756481 -0.548961 -0.391017 0.738747
-32.872921 -61.504902 17.136881 -0.564771 -0.409291 0.716599
-32.372921 -61.453102 17.644081 -0.480197 -0.456041 0.749292
-31.872919 -61.427101 17.897680 -0.439963 -0.446731 0.779015
-31.372919 -61.388302 18.278080 -0.372053 -0.417428 0.829054
-30.872919 -61.375301 18.404881 -0.210990 -0.433001 0.876352
-30.372919 -61.362301 18.531679 -0.221678 -0.459009 0.860331
-29.872919 -61.349400 18.658482 -0.280522 -0.502199 0.817988
-29.372919 -61.323502 18.912081 -0.266490 -0.528249 0.806186
-28.872919 -61.310501 19.038879 -0.290508 -0.522197 0.801820
-28.372919 -61.284603 19.292381 -0.367646 -0.510722 0.777174
-27.872919 -61.258701 19.545980 -0.368672 -0.536115 0.759382
-27.372919 -61.232700 19.799582 -0.391998 -0.574898 0.718213
-26.872919 -61.193802 20.179981 -0.460751 -0.587146 0.665559
-26.372919 -61.155003 20.560379 -0.454813 -0.561034 0.691654
-25.872919 -61.116100 20.940781 -0.499324 -0.500152 0.707477
-25.372921 -61.077202 21.321180 -0.527651 -0.543346 0.652961
-24.872919 -61.025299 21.828381 -0.560813 -0.559765 0.610043
-24.372919 -60.973503 22.335581 -0.516794 -0.531261 0.671332
-23.872919 -60.934601 22.715981 -0.622375 -0.509797 0.593933
-23.372919 -60.843899 23.603479 -0.602663 -0.391737 0.695226
-22.872919 -60.805000 23.983881 -0.142834 -0.213767 0.966386
-22.372919 -60.818001 23.857080 0.132933 -0.123082 0.983453
-21.372919 -59.923599 32.606083 -0.535122 -0.788037 0.304372
-20.872919 -59.781002 34.000782 -0.510095 -0.764536 0.394066
-20.372919 -59.716202 34.634781 -0.387035 -0.764155 0.516014
