52.094318 4.634002 -56.887001 0.808795 0.088879 0.581336
52.594318 4.567001 -58.031101 0.916065 0.015626 0.400726
53.094318 4.432006 -60.319401 0.614375 0.196514 0.764150
53.594318 4.416999 -60.573700 0.555963 0.254300 0.791351
54.094318 4.387001 -61.082199 0.737523 0.267425 0.620115
54.594318 4.350006 -61.717800 0.800641 0.232666 0.552123
55.094318 4.305000 -62.480598 0.832323 0.255364 0.491964
55.594318 4.246002 -63.497601 0.843748 0.320363 0.430647
56.094318 4.192993 -64.387497 0.841926 0.288727 0.455848
-65.655678 7.972000 -6.839397 -0.806980 0.432754 0.401880
-65.155678 8.015006 -5.881702 -0.824079 0.487178 0.289054
-64.655678 8.089004 -4.205699 -0.835221 0.450132 0.315892
-64.155678 8.137000 -3.128299 -0.816105 0.487398 0.310509
-63.655682 8.194999 -1.811405 -0.827372 0.413890 0.379671
-63.155682 8.237998 -0.853695 -0.852177 0.376347 0.363534
-62.655682 8.286002 0.223698 -0.825095 0.457491 0.331542
-62.155682 8.371001 2.139103 -0.821177 0.423733 0.382254
-61.655682 8.407996 2.977200 -0.815793 0.410498 0.407399
-61.155682 8.456000 4.054600 -0.835454 0.347528 0.425724
-60.655682 8.493003 4.892598 -0.844746 0.353545 0.401760
-60.155682 8.545997 6.089703 -0.880809 0.297389 0.368422
-59.655678 8.594001 7.167202 -0.818822 0.395747 0.415831
-59.155678 8.636001 8.124897 -0.813978 0.364893 0.451988
-58.655682 8.667998 8.843204 -0.771861 0.413732 0.482759
-58.155682 8.705001 9.681202 -0.752007 0.438513 0.492130
-57.655682 8.736999 10.399395 -0.745842 0.382341 0.545468
-57.155682 8.763999 10.997997 -0.737910 0.337973 0.584178
-56.655682 8.790000 11.596600 -0.744996 0.315519 0.587732
-56.155682 8.815001 12.282200 -0.736669 0.310954 0.600522
-55.655682 8.834998 12.848003 -0.686307 0.325747 0.650286
-55.155682 8.851005 13.300701 -0.698427 0.309449 0.645322
-54.655682 8.874999 13.979702 -0.745283 0.258456 0.614617
-54.155682 8.893996 14.545498 -0.702526 0.295127 0.647578
-53.655682 8.910003 14.998203 -0.680369 0.312914 0.662709
-53.155682 8.929999 15.564106 -0.628237 0.303655 0.716318
-52.655682 8.941001 15.903599 -0.628142 0.303798 0.716341
-52.155682 8.961005 16.469402 -0.680279 0.313276 0.662630
-51.655682 8.976996 16.922100 -0.564037 0.378132 0.734083
-51.155682 8.989005 17.261600 -0.552361 0.371920 0.746038
-50.655682 9.000998 17.601101 -0.524413 0.385639 0.759127
-50.155682 9.012000 17.940601 -0.541537 0.411422 0.733123
-49.655682 9.027999 18.393299 -0.507116 0.407483 0.759468
-49.155682 9.036002 18.619602 -0.507073 0.407723 0.759368
-48.655682 9.051993 19.072300 -0.541452 0.412020 0.732850
-48.155682 9.064002 19.411800 -0.524247 0.386328 0.758892
-47.655682 9.074996 19.751301 -0.484719 0.361464 0.796487
-47.155682 9.082999 19.977596 -0.444448 0.352335 0.823605
-46.655682 9.095000 20.317097 -0.535230 0.332217 0.776634
-46.155682 9.106994 20.656597 -0.535268 0.332303 0.776571
-45.655682 9.119002 20.996098 -0.535029 0.332441 0.776677
-45.155682 9.129996 21.335598 -0.535102 0.332495 0.776603
-44.655682 9.141997 21.675205 -0.514978 0.367507 0.774426
-44.155682 9.154006 22.014698 -0.513436 0.359893 0.779012
-43.655682 9.165999 22.354198 -0.476778 0.333945 0.813120
-43.155682 9.174003 22.580502 -0.389583 0.359179 0.848066
-42.655682 9.181998 22.806797 -0.314027 0.369341 0.874628
-42.155682 9.186004 22.920002 -0.313895 0.369387 0.874656
-41.655682 9.193000 23.146297 -0.366319 0.397688 0.841222
-41.155682 9.201003 23.372700 -0.346496 0.428982 0.834215
-40.655682 9.209006 23.599003 -0.306089 0.422618 0.853056
-40.155682 9.212996 23.712200 -0.363900 0.447921 0.816666
-39.655682 9.224998 24.051701 -0.329411 0.454217 0.827753
-39.155682 9.229003 24.164700 -0.200794 0.445402 0.872524
-38.655682 9.233001 24.277699 -0.201488 0.445731 0.872196
-38.155682 9.236999 24.391697 -0.117619 0.452349 0.884051
-37.655682 9.236999 24.391697 -0.116952 0.452479 0.884073
-37.155682 9.241004 24.504704 -0.179622 0.480576 0.858361
-36.655682 9.244994 24.617695 -0.193888 0.507879 0.839325
-36.155682 9.249000 24.730701 -0.094399 0.485200 0.869293
-35.655682 9.249000 24.730701 0.000000 0.459095 0.888387
-35.155682 9.249000 24.730701 0.094399 0.485200 0.869293
-34.655682 9.244994 24.617695 0.094399 0.485198 0.869294
-34.155682 9.244994 24.617695 0.185266 0.450081 0.873558
-33.655682 9.236999 24.391697 0.287080 0.469649 0.834874
-33.155682 9.233001 24.277699 0.287235 0.469246 0.835048
-32.655682 9.224998 24.051701 0.289662 0.406243 0.866639
-32.155682 9.221000 23.938694 0.206323 0.386004 0.899128
-31.655680 9.216994 23.825703 0.206646 0.386073 0.899024
-31.155680 9.212996 23.712200 0.206797 0.386145 0.898959
-30.655680 9.209006 23.599003 0.084018 0.390670 0.916689
-30.155680 9.209006 23.599003 0.121804 0.390143 0.912662
-29.655680 9.205001 23.485905 -0.000000 0.393025 0.919528
-29.155680 9.209006 23.599003 -0.000000 0.392950 0.919560
-28.655680 9.205001 23.485905 -0.010843 0.420907 0.907039
-28.155682 9.209006 23.599003 -0.082124 0.457815 0.885247
-27.655680 9.209006 23.599003 0.000000 0.459345 0.888258
-27.155680 9.209006 23.599003 0.075079 0.511966 0.855718
-26.655680 9.205001 23.485905 0.078686 0.554907 0.828183
-26.155680 9.205001 23.485905 0.012382 0.533654 0.845612
-25.655680 9.205001 23.485905 0.003988 0.562864 0.826540
-25.155680 9.205001 23.485905 -0.016986 0.583494 0.811940
-24.655680 9.205001 23.485905 -0.063604 0.599193 0.798074
-24.155680 9.209006 23.599003 -0.000000 0.657093 0.753809
-23.655680 9.205001 23.485905 0.153486 0.671121 0.725285
-23.155680 9.201003 23.372700 0.092771 0.700345 0.707750
-22.655680 9.201003 23.372700 0.068250 0.737617 0.671761
-22.155680 9.196998 23.259502 0.095221 0.772135 0.628284
-21.655680 9.196998 23.259502 0.066178 0.805400 0.589026
-21.155680 9.193000 23.146297 0.064928 0.803569 0.591660
-20.655680 9.193000 23.146297 0.015242 0.773666 0.633410
-20.155680 9.193000 23.146297 0.066394 0.749425 0.658752
-19.655680 9.189994 23.033199 0.159481 0.713320 0.682451
-19.155680 9.186004 22.920002 0.093081 0.688713 0.719034
-18.655680 9.186004 22.920002 0.131086 0.686016 0.715680
-18.155680 9.178000 22.693699 0.156014 0.677189 0.719080
-17.655680 9.178000 22.693699 0.093111 0.688449 0.719283
-17.155680 9.174003 22.580502 0.093114 0.688445 0.719287
-16.655680 9.174003 22.580502 0.065089 0.672107 0.737588
-16.155680 9.169997 22.467297 0.098370 0.650060 0.753489
-15.655680 9.169997 22.467297 -0.073835 0.654707 0.752268
-15.155680 9.174003 22.580502 -0.090203 0.666880 0.739686
-14.655680 9.174003 22.580502 0.083384 0.650484 0.754929
-14.155680 9.169997 22.467297 0.087477 0.589197 0.803240
-13.655680 9.169997 22.467297 0.107857 0.561822 0.820197
-13.155680 9.165999 22.354198 0.093150 0.538195 0.837657
-12.655680 9.165999 22.354198 0.201124 0.441719 0.874319
-12.155680 9.158004 22.127796 0.260248 0.414174 0.872199
-11.655680 9.154006 22.014698 0.000000 0.447576 0.894246
-11.155680 9.158004 22.127796 0.011037 0.487243 0.873197
-10.655680 9.154006 22.014698 0.180031 0.479289 0.858994
-10.155680 9.150001 21.901501 0.214831 0.473098 0.854416
-9.655680 9.146003 21.788303 0.287026 0.468183 0.835716
-9.155680 9.138000 21.562000 0.465294 0.400094 0.789573
-8.655680 9.126998 21.222500 0.444973 0.436059 0.782209
-8.155680 9.119002 20.996098 0.296761 0.484442 0.822951
-7.655680 9.114997 20.882999 0.196131 0.490126 0.849299
-7.155680 9.110999 20.769802 0.196203 0.490117 0.849288
-6.655680 9.106994 20.656597 0.095013 0.528865 0.843371
-6.155680 9.106994 20.656597 0.147779 0.566881 0.810436
-5.655680 9.099006 20.430302 0.251804 0.545661 0.799280
-5.155680 9.095000 20.317097 0.205108 0.527411 0.824481
-4.655680 9.091002 20.203999 0.176894 0.533280 0.827237
-4.155680 9.086997 20.090801 0.194291 0.506145 0.840279
-3.655680 9.082999 19.977596 0.295650 0.487970 0.821265
-3.155680 9.074996 19.751301 0.263976 0.498834 0.825519
-2.655680 9.071006 19.638103 0.350760 0.497165 0.793596
-2.155680 9.059997 19.298603 0.475388 0.522157 0.708067
-1.655680 9.048003 18.959103 0.482210 0.538139 0.691289
-1.155680 9.036002 18.619602 0.527188 0.537777 0.657927
-0.655680 9.019996 18.166897 0.442704 0.598391 0.667788
-0.155680 9.012000 17.940601 0.328455 0.627420 0.706018
0.344320 9.003997 17.714199 0.325047 0.600696 0.730417
0.844320 8.996993 17.487904 0.261702 0.562488 0.784295
1.344320 8.993003 17.374805 0.216394 0.547863 0.808096
1.844320 8.989005 17.261600 0.262343 0.562262 0.784243
2.344320 8.981002 17.035198 0.325564 0.600349 0.730471
2.844320 8.972999 16.808903 0.263359 0.628605 0.731777
3.344320 8.968993 16.695698 0.180759 0.652761 0.735683
3.844320 8.964995 16.582600 0.236411 0.672363 0.701454
4.344320 8.957000 16.356197 0.312442 0.677128 0.666242
4.844320 8.948997 16.129902 0.365994 0.675414 0.640207
5.344320 8.938003 15.790401 0.334650 0.703643 0.626814
5.844320 8.929999 15.564106 0.368779 0.694486 0.617811
6.344320 8.917998 15.224499 0.422246 0.695151 0.581785
6.844320 8.906005 14.884998 0.337967 0.730841 0.593001
7.344320 8.898002 14.658703 0.377106 0.699446 0.607096
7.844320 8.886001 14.319202 0.490575 0.688415 0.534248
8.344320 8.862998 13.640202 0.479464 0.717033 0.505942
8.844320 8.851005 13.300701 0.412073 0.697210 0.586595
9.344320 8.838996 12.961201 0.404829 0.732596 0.547189
9.844320 8.826995 12.621700 0.497610 0.732446 0.464657
10.344320 8.790000 11.596600 0.500086 0.756949 0.420646
10.844320 8.775001 11.237400 0.378970 0.786576 0.487524
11.344320 8.759002 10.878300 0.451213 0.776725 0.439437
11.844320 8.732001 10.279697 0.498675 0.805621 0.319841
12.344320 8.663001 8.723400 0.568701 0.807557 0.156306
13.844320 8.020003 -5.761997 0.669434 0.397426 0.627622
14.344320 7.999000 -6.240901 0.534168 0.522516 0.664561
14.844320 7.987998 -6.480304 0.523529 0.540442 0.658665
15.344320 7.967002 -6.959102 0.523939 0.528370 0.668067
15.844320 7.951004 -7.318302 0.454490 0.508134 0.731600
16.344320 7.939994 -7.557697 0.533880 0.413550 0.737529
16.844320 7.918998 -8.036602 0.682327 0.376401 0.626700
17.344320 7.887001 -8.754894 0.582617 0.459054 0.670691
17.844320 7.877006 -8.994297 0.541904 0.497125 0.677648
18.344320 7.845001 -9.712605 0.632643 0.551084 0.544123
18.844320 7.822998 -10.191402 0.576683 0.538947 0.613982
19.344320 7.802001 -10.670300 0.630935 0.464109 0.621710
19.844320 7.781005 -11.149204 0.709046 0.472935 0.523056
20.344320 7.744003 -11.987194 0.759096 0.477585 0.442364
20.844320 7.707000 -12.825203 0.688044 0.539530 0.485287
21.344320 7.680000 -13.423698 0.724771 0.540718 0.427002
21.844320 7.626998 -14.620899 0.772464 0.543184 0.329015
22.344320 7.452003 -18.571499 -0.225110 0.506233 0.832498
22.844320 7.457000 -18.451702 -0.179177 0.553721 0.813197
23.344320 7.461998 -18.332001 -0.102446 0.592035 0.799374
23.844320 7.461998 -18.332001 0.253307 0.573153 0.779314
24.344320 7.445999 -18.691200 0.518709 0.490421 0.700306
24.844320 7.430000 -19.050301 0.591286 0.510081 0.624658
25.344320 7.404006 -19.648903 0.584703 0.502829 0.636620
25.844320 7.388000 -20.007999 0.609661 0.507368 0.609008
26.344320 7.356002 -20.726299 0.719691 0.558529 0.412419
26.844320 7.313003 -21.684002 0.600347 0.612157 0.514633
27.344320 7.291999 -22.162899 0.623558 0.628579 0.464828
27.844320 7.254997 -23.000900 0.627808 0.655587 0.419597
28.344320 7.227996 -23.599503 0.604168 0.666548 0.436686
28.844320 7.197006 -24.317699 0.658845 0.646782 0.384183
29.344320 7.158996 -25.155701 0.656687 0.686274 0.312715
29.844320 7.032005 -28.028900 0.331340 0.663255 0.671049
30.344320 7.024002 -28.156002 0.351236 0.663110 0.660997
30.844320 6.995002 -28.664497 0.553829 0.612922 0.563560
31.344320 6.972999 -29.045902 0.533906 0.648109 0.543047
31.844320 6.943000 -29.554298 0.521724 0.642741 0.560971
32.344318 6.920997 -29.935699 0.427426 0.667007 0.610253
32.844318 6.905998 -30.189899 0.369875 0.726834 0.578710
33.344318 6.883995 -30.571301 0.456699 0.744007 0.487728
33.844318 6.855003 -31.079800 0.468358 0.718444 0.514276
34.344318 6.832000 -31.461201 0.451653 0.726538 0.517834
34.844318 6.809997 -31.842499 0.516764 0.689307 0.507751
35.344322 6.773002 -32.478100 0.547882 0.648236 0.528786
35.844318 6.750999 -32.859501 0.551182 0.678304 0.485902
36.344318 6.698997 -33.749302 0.707881 0.614367 0.348508
36.844318 6.639999 -34.766300 0.717889 0.626505 0.303525
37.344318 6.580993 -35.783302 0.681551 0.671709 0.290336
37.844318 6.514999 -36.927402 0.682003 0.677742 0.274842
38.344318 6.456001 -37.944302 0.675658 0.657017 0.334388
38.844318 6.035003 -45.190201 0.580286 0.337305 0.741278
39.344318 6.013000 -45.571598 0.504488 0.308125 0.806567
39.844318 5.997993 -45.825798 0.487135 0.368432 0.791806
40.344318 5.968002 -46.334297 0.691626 0.313990 0.650434
40.844318 5.939003 -46.842800 0.663669 0.312639 0.679559
41.344318 5.908996 -47.351299 0.657680 0.254982 0.708831
41.844318 5.887001 -47.732700 0.538941 0.215883 0.814210
42.344318 5.872001 -47.986900 0.503325 0.224211 0.834502
42.844318 5.849998 -48.368301 0.414558 0.235094 0.879131
43.344318 5.843002 -48.495399 0.459650 0.269902 0.846094
43.844318 5.812995 -49.003899 0.450940 0.326385 0.830738
44.344318 5.805999 -49.131001 0.442484 0.315893 0.839297
44.844318 5.776000 -49.639500 0.669715 0.333819 0.663360
45.344318 5.747001 -50.147999 0.607854 0.382179 0.696027
45.844318 5.724998 -50.529301 0.568984 0.390945 0.723477
46.344318 5.702995 -50.910698 0.635773 0.365081 0.680080
46.844318 5.673004 -51.419201 0.736363 0.280507 0.615700
47.344318 5.636001 -52.054798 0.663236 0.288381 0.690619
47.844318 5.613998 -52.436100 0.679108 0.258813 0.686897
48.344318 5.577003 -53.071697 0.702784 0.145414 0.696383
48.844318 5.555000 -53.453098 0.641897 0.133633 0.755057
49.344318 5.525001 -53.961601 0.711248 0.122057 0.692263
49.844318 5.496002 -54.470100 0.720417 0.145919 0.678017
50.344318 5.466003 -54.978600 0.695825 0.157476 0.700734
50.844318 5.436996 -55.487000 0.744733 0.140358 0.652435
51.344318 5.400001 -56.122601 0.798371 0.149041 0.583430
51.844318 5.362998 -56.758301 0.782151 0.182433 0.595784
52.344318 5.319000 -57.521000 0.851266 0.105569 0.514005
52.844318 5.266998 -58.410801 0.920805 -0.008347 0.389933
53.344318 5.133995 -60.699001 0.702923 0.344617 0.622204
53.844318 5.104003 -61.207500 0.687403 0.406332 0.601973
54.344318 5.068000 -61.843102 0.762154 0.349914 0.544685
54.844318 5.023002 -62.605801 0.832121 0.327450 0.447606
55.344318 4.957000 -63.749901 0.858671 0.410315 0.307125
-65.405678 8.636001 -7.437999 -0.749982 0.572790 0.330814
-64.905678 8.682998 -6.360599 -0.803322 0.524547 0.281999
-64.405678 8.762000 -4.564899 -0.819662 0.480110 0.312487
-63.905682 8.809005 -3.487499 -0.809755 0.496806 0.312220
-63.405682 8.872001 -2.050998 -0.846009 0.440680 0.300116
-62.905682 8.929000 -0.734195 -0.839631 0.341550 0.422332
-62.405682 8.961005 -0.015903 -0.790469 0.433204 0.433004
-61.905682 9.034003 1.660099 -0.834194 0.454100 0.312911
-61.405682 9.081000 2.737499 -0.832639 0.410014 0.372291
-60.905682 9.133002 3.934597 -0.828327 0.419390 0.371465
-60.405682 9.179999 5.012005 -0.859385 0.362259 0.360869
-59.905685 9.228004 6.089398 -0.837221 0.360642 0.411094
-59.405682 9.263999 6.927395 -0.823596 0.380290 0.420795
-58.905682 9.311004 8.004795 -0.816044 0.341987 0.465958
-58.405682 9.343001 8.723103 -0.749314 0.405879 0.523250
-57.905682 9.374000 9.441402 -0.771643 0.417942 0.479469
-57.405682 9.411002 10.279400 -0.779736 0.367371 0.507001
-56.905682 9.442000 10.997601 -0.740816 0.357201 0.568857
-56.405682 9.468001 11.596203 -0.719838 0.377247 0.582682
-55.905682 9.489005 12.168598 -0.694201 0.406681 0.593881
-55.405682 9.508002 12.734501 -0.702578 0.360020 0.613816
-54.905682 9.527999 13.300404 -0.721032 0.331615 0.608395
-54.405682 9.546996 13.866199 -0.703780 0.364746 0.609634
-53.905682 9.565993 14.432102 -0.698070 0.349767 0.624789
-53.405682 9.584998 14.997997 -0.686143 0.326266 0.650199
-52.905682 9.600997 15.450695 -0.607596 0.364877 0.705472
-52.405682 9.615996 15.903400 -0.659207 0.331759 0.674820
-51.905682 9.630996 16.356098 -0.572643 0.399902 0.715653
-51.405682 9.642997 16.695599 -0.551239 0.432259 0.713644
-50.905682 9.657996 17.148296 -0.553500 0.421773 0.718154
-50.405682 9.669997 17.487797 -0.471479 0.412855 0.779268
-49.905682 9.678000 17.714199 -0.482983 0.439154 0.757543
-49.405682 9.693000 18.166897 -0.546873 0.425990 0.720737
-48.905682 9.705001 18.506397 -0.552119 0.372379 0.745989
-48.405682 9.716002 18.845898 -0.524276 0.386196 0.758938
-47.905682 9.728004 19.185398 -0.541243 0.412007 0.733012
-47.405682 9.743003 19.638103 -0.493275 0.377433 0.783725
-46.905682 9.751006 19.864498 -0.477483 0.341558 0.809536
-46.405682 9.762000 20.203999 -0.535099 0.332048 0.776797
-45.905682 9.774001 20.543499 -0.514743 0.367316 0.774673
-45.405682 9.785003 20.883099 -0.524218 0.386523 0.758812
-44.905682 9.797004 21.222607 -0.465457 0.399814 0.789619
-44.405682 9.804999 21.448902 -0.441896 0.434563 0.784782
-43.905682 9.816001 21.788403 -0.490377 0.475052 0.730655
-43.405682 9.827994 22.127995 -0.428954 0.482776 0.763496
-42.905682 9.835998 22.354298 -0.368544 0.476622 0.798127
-42.405682 9.843001 22.580700 -0.356163 0.448575 0.819712
-41.905682 9.850997 22.806995 -0.306075 0.422106 0.853314
-41.405682 9.854995 22.920200 -0.214906 0.473197 0.854342
-40.905682 9.859000 23.033398 -0.295171 0.488866 0.820904
-40.405682 9.866004 23.259701 -0.358444 0.456637 0.814249
-39.905682 9.874000 23.486095 -0.388500 0.445309 0.806702
-39.405682 9.881995 23.712399 -0.263812 0.500231 0.824725
-38.905682 9.886001 23.825703 -0.193646 0.507340 0.839707
-38.405682 9.888999 23.938694 -0.193566 0.507473 0.839645
-37.905682 9.893004 24.051701 -0.162405 0.506444 0.846841
-37.405682 9.896995 24.164700 -0.113080 0.499712 0.858779
-36.905682 9.896995 24.164700 -0.112980 0.512830 0.851024
-36.405682 9.901000 24.278698 -0.177104 0.534880 0.826158
-35.905682 9.904998 24.391697 -0.078588 0.554945 0.828167
-35.405682 9.904998 24.391697 0.078588 0.554945 0.828167
-34.905682 9.901000 24.278698 0.093052 0.539011 0.837143
-34.405682 9.901000 24.278698 0.089866 0.534021 0.840682
-33.905682 9.896995 24.164700 0.272384 0.497321 0.823698
-33.405682 9.888999 23.938694 0.286180 0.469173 0.835451
-32.905682 9.886001 23.825703 0.199996 0.446647 0.872071
-32.405682 9.881995 23.712399 0.220521 0.412827 0.883711
-31.905680 9.877997 23.599194 0.186818 0.419004 0.888557
-31.405680 9.874000 23.486095 0.206547 0.385731 0.899194
-30.905680 9.870002 23.372898 0.101304 0.355830 0.929044
-30.405680 9.870002 23.372898 0.085445 0.322282 0.942780
-29.905680 9.866004 23.259701 0.124915 0.317542 0.939981
-29.405680 9.866004 23.259701 -0.000039 0.391201 0.920305
-28.905680 9.866004 23.259701 0.019022 0.424610 0.905177
-28.405680 9.866004 23.259701 -0.019022 0.424610 0.905177
-27.905680 9.866004 23.259701 0.015606 0.485876 0.873888
-27.405680 9.866004 23.259701 0.079940 0.512602 0.854897
-26.905680 9.862998 23.146595 0.094087 0.484744 0.869581
-26.405680 9.862998 23.146595 0.000000 0.458641 0.888622
-25.905680 9.862998 23.146595 0.082247 0.457062 0.885624
-25.405680 9.859000 23.033398 0.000000 0.447713 0.894177
-24.905680 9.862998 23.146595 0.000000 0.458589 0.888648
-24.405680 9.859000 23.033398 0.094162 0.499450 0.861211
-23.905680 9.859000 23.033398 0.107997 0.558869 0.822194
-23.405680 9.854995 22.920200 0.187892 0.555001 0.810352
-22.905680 9.850997 22.806995 0.174038 0.575376 0.799158
-22.405680 9.847007 22.693897 0.258098 0.603019 0.754820
-21.905680 9.839004 22.467495 0.237573 0.622985 0.745284
-21.405680 9.835998 22.354298 0.116021 0.669879 0.733350
-20.905680 9.835998 22.354298 0.011254 0.731698 0.681536
-20.405680 9.835998 22.354298 -0.011254 0.731698 0.681536
-19.905680 9.835998 22.354298 0.019022 0.719330 0.694408
-19.405680 9.835998 22.354298 0.084345 0.705911 0.703261
-18.905680 9.832000 22.241100 0.084330 0.705897 0.703277
-18.405680 9.832000 22.241100 0.102693 0.684068 0.722153
-17.905680 9.827994 22.127995 0.157910 0.665668 0.729350
-17.405680 9.824004 22.014797 0.166516 0.682733 0.711441
-16.905680 9.819999 21.901600 0.000000 0.691674 0.722210
-16.405680 9.824004 22.014797 0.024221 0.682471 0.730511
-15.905680 9.819999 21.901600 0.071900 0.686175 0.723875
-15.405680 9.819999 21.901600 -0.010855 0.706627 0.707502
-14.905680 9.819999 21.901600 -0.069347 0.722151 0.688250
-14.405680 9.824004 22.014797 -0.060088 0.678177 0.732439
-13.905680 9.824004 22.014797 0.067998 0.627446 0.775685
-13.405680 9.819999 21.901600 0.087496 0.588961 0.803411
-12.905680 9.819999 21.901600 0.000000 0.568775 0.822493
-12.405680 9.819999 21.901600 0.131363 0.527934 0.839065
-11.905680 9.816001 21.788403 0.099637 0.472750 0.875545
-11.405680 9.816001 21.788403 0.059392 0.477343 0.876708
-10.905680 9.812003 21.675297 0.112398 0.511509 0.851895
-10.405680 9.812003 21.675297 0.180105 0.497506 0.848557
-9.905680 9.804999 21.448902 0.276198 0.520705 0.807825
-9.405680 9.801002 21.335796 0.337299 0.526460 0.780429
-8.905680 9.789001 20.996204 0.497493 0.489761 0.715985
-8.405680 9.777999 20.656704 0.410417 0.520519 0.748744
-7.905680 9.770003 20.430401 0.268730 0.570729 0.775920
-7.405680 9.765998 20.317204 0.180422 0.604450 0.775943
-6.905680 9.762000 20.203999 0.188426 0.620798 0.760990
-6.405680 9.758994 20.090801 0.149257 0.648071 0.746811
-5.905680 9.754996 19.977703 0.109441 0.626593 0.771624
-5.405680 9.754996 19.977703 0.168562 0.596602 0.784636
-4.905680 9.747001 19.751301 0.166781 0.605227 0.778386
-4.405680 9.747001 19.751301 0.097511 0.582193 0.807182
-3.905680 9.743003 19.638103 0.262124 0.563038 0.783760
-3.405680 9.735000 19.411800 0.264286 0.566554 0.780493
-2.905680 9.731994 19.298603 0.309927 0.556168 0.771118
-2.405680 9.720000 18.959103 0.475761 0.521734 0.708128
-1.905680 9.707999 18.619602 0.503626 0.505952 0.700267
-1.405680 9.696998 18.279995 0.545339 0.545775 0.636188
-0.905680 9.678000 17.714199 0.533468 0.599338 0.596829
-0.405680 9.665999 17.374599 0.305327 0.666852 0.679767
0.094320 9.661994 17.261501 0.182820 0.658213 0.730296
0.594320 9.657996 17.148296 0.193526 0.611970 0.766838
1.094320 9.655005 17.035099 0.253591 0.594789 0.762836
1.594320 9.647002 16.808796 0.314772 0.633182 0.707106
2.094320 9.638999 16.582394 0.321699 0.650733 0.687791
2.594320 9.630996 16.356098 0.316000 0.638348 0.701894
3.094320 9.624000 16.129696 0.315929 0.638261 0.702005
3.594320 9.615996 15.903400 0.316855 0.691200 0.649496
4.094320 9.607993 15.676998 0.288565 0.749236 0.596134
4.594320 9.600997 15.450695 0.289445 0.751549 0.592786
5.094320 9.593001 15.224300 0.292378 0.738363 0.607730
5.594320 9.584998 14.997997 0.359988 0.742298 0.565157
6.094320 9.569999 14.545300 0.421962 0.736488 0.528709
6.594320 9.558005 14.205799 0.344654 0.750708 0.563605
7.094320 9.551002 13.979404 0.345082 0.767353 0.540451
7.594320 9.535003 13.526699 0.514873 0.719541 0.466012
8.094320 9.515998 12.960804 0.401760 0.735056 0.546152
8.594320 9.508002 12.734501 0.386699 0.738704 0.552069
9.094320 9.485000 12.055401 0.428043 0.804348 0.412072
9.594320 9.473998 11.715900 0.461611 0.799676 0.383972
10.094320 9.431998 10.758205 0.462693 0.765261 0.447538
10.594320 9.415999 10.399097 0.428705 0.798139 0.423304
11.094320 9.379004 9.561100 0.518840 0.820587 0.239671
11.594320 9.311004 8.004795 0.563339 0.813383 0.145112
12.094320 8.750998 -4.804302 0.455410 0.571902 0.682298
12.594320 8.741004 -5.043804 0.407269 0.646318 0.645295
13.094320 8.724998 -5.402904 0.523917 0.614823 0.589495
13.594320 8.704001 -5.881793 0.645251 0.493636 0.583074
14.094320 8.678000 -6.480304 0.607895 0.536637 0.585221
14.594320 8.656997 -6.959201 0.521811 0.583052 0.622707
15.094320 8.640998 -7.318302 0.486142 0.582301 0.651607
15.594320 8.625998 -7.677402 0.420908 0.584964 0.693292
16.094320 8.614997 -7.916904 0.419704 0.582527 0.696068
16.594320 8.598998 -8.276005 0.582698 0.544236 0.603548
17.094320 8.572997 -8.874599 0.694818 0.481974 0.533788
17.594320 8.546996 -9.473103 0.629290 0.568763 0.529625
18.094320 8.515998 -10.191402 0.625227 0.554149 0.549554
18.594320 8.499999 -10.550503 0.478146 0.615008 0.627009
19.094320 8.484000 -10.909702 0.565142 0.598879 0.567414
19.594320 8.447997 -11.747601 0.671402 0.616426 0.411386
20.094320 8.415999 -12.465897 0.705214 0.572304 0.418500
20.594320 8.378997 -13.303902 0.671611 0.618366 0.408120
21.094320 8.343001 -14.141903 0.707661 0.624609 0.330270
21.594320 8.118003 -19.289501 -0.305582 0.410079 0.859334
22.094320 8.127997 -19.050098 -0.285316 0.480714 0.829161
22.594320 8.132995 -18.930401 -0.103704 0.548369 0.829781
23.094320 8.132995 -18.930401 0.009384 0.637592 0.770317
23.594320 8.132995 -18.930401 0.079995 0.709862 0.699784
24.094320 8.127997 -19.050098 0.352017 0.684089 0.638832
24.594320 8.107001 -19.528900 0.548077 0.651329 0.524769
25.094320 8.085998 -20.007801 0.538479 0.640468 0.547578
25.594320 8.065001 -20.486599 0.589872 0.666945 0.455231
26.094320 8.017997 -21.563999 0.647183 0.625897 0.435210
26.594320 7.997001 -22.042900 0.590176 0.612122 0.526307
27.094320 7.966003 -22.761200 0.674220 0.607780 0.419560
27.594320 7.929000 -23.599201 0.677054 0.592427 0.436610
28.094320 7.902999 -24.197701 0.624051 0.659538 0.419011
28.594320 7.865997 -25.035702 0.647695 0.695791 0.310430
29.094320 7.746002 -27.789101 0.737176 0.483759 0.471751
29.594320 7.713996 -28.409801 0.442206 0.462591 0.768417
30.094320 7.706001 -28.536900 0.369180 0.496866 0.785385
30.594320 7.684005 -28.918301 0.603731 0.474324 0.640722
31.094320 7.654998 -29.426800 0.626864 0.490705 0.605186
31.594320 7.625999 -29.935200 0.617537 0.514377 0.595034
32.094318 7.597000 -30.443703 0.562435 0.584129 0.585202
32.594318 7.575004 -30.825001 0.473009 0.674531 0.566807
33.094318 7.553001 -31.206398 0.470426 0.682518 0.559347
33.594318 7.530998 -31.587700 0.501821 0.672777 0.543641
34.094318 7.501998 -32.096199 0.428007 0.729291 0.533802
34.594318 7.486999 -32.350403 0.453323 0.703940 0.546779
35.094318 7.451004 -32.986000 0.578213 0.672404 0.462108
35.594318 7.414001 -33.621601 0.637508 0.658918 0.399262
36.094318 7.370002 -34.384300 0.689515 0.639691 0.339654
36.594318 7.296997 -35.655403 0.695150 0.657818 0.289900
37.094318 7.239006 -36.672401 0.723677 0.622701 0.297550
37.594318 7.172996 -37.816402 0.707692 0.626343 0.326905
38.094318 7.129005 -38.579098 0.667712 0.626814 0.401578
38.594318 6.741996 -45.316200 0.541498 0.413613 0.731918
39.094318 6.720001 -45.697601 0.568708 0.392217 0.723005
39.594318 6.697998 -46.078899 0.545664 0.430439 0.719008
40.094318 6.676002 -46.460300 0.567148 0.393801 0.723370
40.594318 6.653999 -46.841599 0.646750 0.310030 0.696847
41.094318 6.625000 -47.350101 0.640229 0.285892 0.713003
41.594318 6.602996 -47.731400 0.579488 0.246448 0.776825
42.094318 6.580993 -48.112801 0.518186 0.259382 0.814987
42.594318 6.567001 -48.367001 0.460461 0.263399 0.847701
43.094318 6.552001 -48.621201 0.531501 0.292177 0.795072
43.594318 6.523002 -49.129700 0.548375 0.329345 0.768646
44.094318 6.508003 -49.383900 0.484515 0.355429 0.799322
44.594318 6.486000 -49.765297 0.628914 0.346497 0.695993
45.094318 6.457000 -50.273701 0.636840 0.280937 0.717989
45.594318 6.435005 -50.655098 0.591316 0.270308 0.759789
46.094318 6.413002 -51.036400 0.645835 0.304233 0.700242
46.594318 6.384002 -51.544899 0.677256 0.352325 0.645903
47.094318 6.354995 -52.053299 0.687608 0.297439 0.662363
47.594318 6.326004 -52.561798 0.629350 0.263525 0.731076
48.094318 6.304000 -52.943199 0.664021 0.193913 0.722131
48.594318 6.275001 -53.451599 0.654482 0.166926 0.737421
49.094318 6.252998 -53.833000 0.654514 0.166874 0.737404
49.594318 6.222999 -54.341400 0.736325 0.118555 0.666161
50.094318 6.187004 -54.976997 0.699791 0.159747 0.696256
50.594318 6.165000 -55.358398 0.686995 0.186280 0.702380
51.094318 6.128997 -55.993900 0.796715 0.157397 0.583499
51.594318 6.084999 -56.756599 0.801747 0.181373 0.569479
52.094318 6.047996 -57.392200 0.786397 0.179026 0.591209
52.594318 6.012001 -58.027798 0.830594 0.134159 0.540477
53.094318 5.844001 -60.951500 0.705149 0.503058 0.499697
53.594318 5.806999 -61.586998 0.598765 0.534697 0.596305
54.094318 5.784996 -61.968399 0.645246 0.484912 0.590354
54.594318 5.749000 -62.603901 0.769142 0.446339 0.457387
55.094318 5.661003 -64.129303 0.869535 0.432744 0.237993
55.594318 5.544006 -66.163200 0.922063 0.326465 0.207895
-65.155678 9.301002 -8.036602 -0.722504 0.618526 0.308893
-64.655678 9.346999 -6.959201 -0.779892 0.562280 0.274971
-64.155678 9.435004 -4.924098 -0.791640 0.525266 0.312091
-63.655682 9.476005 -3.966495 -0.794493 0.520601 0.312660
-63.155682 9.538001 -2.529995 -0.833343 0.492666 0.250636
-62.655682 9.610000 -0.854000 -0.750155 0.479809 0.455029
-62.155682 9.636001 -0.255497 -0.796554 0.427329 0.427658
-61.655682 9.707999 1.420506 -0.837015 0.458725 0.298290
-61.155682 9.758994 2.617604 -0.830050 0.411874 0.376001
-60.655682 9.801002 3.575199 -0.840146 0.401151 0.365010
-60.155682 9.847007 4.652600 -0.807882 0.472636 0.352055
-59.655678 9.903998 5.969403 -0.809888 0.441091 0.386678
-59.155678 9.944999 6.927098 -0.842608 0.376514 0.385031
-58.655682 9.991996 8.004498 -0.741091 0.404784 0.535662
-58.155682 10.012000 8.483303 -0.726508 0.396571 0.561176
-57.655682 10.047996 9.321301 -0.783150 0.400937 0.475316
-57.155682 10.083999 10.159306 -0.748278 0.426887 0.507787
-56.655682 10.110000 10.757801 -0.691510 0.458967 0.557820
-56.155682 10.135993 11.356403 -0.706801 0.424782 0.565679
-55.655682 10.158996 11.941898 -0.699466 0.430206 0.570676
-55.155682 10.181998 12.620998 -0.714867 0.406682 0.568837
-54.655682 10.199996 13.186901 -0.691498 0.405835 0.597602
-54.155682 10.219001 13.752796 -0.708015 0.375773 0.597921
-53.655682 10.238006 14.318699 -0.686435 0.395826 0.610023
-53.155682 10.257003 14.884602 -0.607953 0.417945 0.675067
-52.655682 10.267997 15.224102 -0.604195 0.408211 0.684333
-52.155682 10.286994 15.789997 -0.604190 0.408322 0.684272
-51.655682 10.298003 16.129604 -0.490929 0.472665 0.731831
-51.155682 10.308997 16.469105 -0.504005 0.504494 0.701046
-50.655682 10.320998 16.808605 -0.544945 0.495915 0.676094
-50.155682 10.335998 17.261395 -0.464730 0.473665 0.748110
-49.655682 10.343001 17.487698 -0.494361 0.461939 0.736356
-49.155682 10.358001 17.940395 -0.620167 0.402294 0.673462
-48.655682 10.373000 18.393200 -0.563762 0.378376 0.734169
-48.155682 10.385001 18.732700 -0.465345 0.399024 0.790085
-47.655682 10.391997 18.959103 -0.506620 0.407609 0.759731
-47.155682 10.406997 19.411800 -0.541338 0.411821 0.733046
-46.655682 10.418998 19.751301 -0.524218 0.386167 0.758993
-46.155682 10.429999 20.090900 -0.465067 0.399449 0.790034
-45.655682 10.437003 20.317204 -0.465175 0.399600 0.789894
-45.155682 10.449004 20.656796 -0.501662 0.423005 0.754587
-44.655682 10.459998 20.996296 -0.423144 0.467637 0.776057
-44.155682 10.468001 21.222698 -0.377660 0.497984 0.780631
-43.655682 10.474998 21.448994 -0.438870 0.505319 0.742998
-43.155682 10.485999 21.788601 -0.410432 0.520795 0.748544
-42.655682 10.493995 22.015003 -0.355973 0.531358 0.768728
-42.155682 10.500998 22.241299 -0.377647 0.498383 0.780383
-41.655682 10.509002 22.467701 -0.263789 0.499658 0.825080
-41.155682 10.513000 22.580799 -0.311121 0.432476 0.846267
-40.655682 10.519996 22.807201 -0.366234 0.397439 0.841377
-40.155682 10.527999 23.033604 -0.358526 0.456374 0.814360
-39.655682 10.534995 23.259899 -0.295156 0.488863 0.820912
-39.155682 10.539001 23.373104 -0.194181 0.507172 0.839685
-38.655682 10.542998 23.486301 -0.194069 0.507030 0.839797
-38.155682 10.547004 23.599499 -0.112428 0.511939 0.851633
-37.655682 10.547004 23.599499 -0.088999 0.533349 0.841200
-37.155682 10.550002 23.712696 -0.176162 0.534216 0.826789
-36.655682 10.554000 23.825703 -0.098436 0.540777 0.835387
-36.155682 10.554000 23.825703 -0.012823 0.590914 0.806633
-35.655682 10.554000 23.825703 0.000000 0.612114 0.790770
-35.155682 10.554000 23.825703 0.012823 0.590914 0.806633
-34.655682 10.554000 23.825703 0.087307 0.589657 0.802921
-34.155682 10.550002 23.712696 0.087417 0.589425 0.803079
-33.655682 10.550002 23.712696 0.199713 0.527786 0.825564
-33.155682 10.542998 23.486301 0.159473 0.480245 0.862516
-32.655682 10.542998 23.486301 0.185532 0.449378 0.873863
-32.155682 10.534995 23.259899 0.163180 0.413747 0.895648
-31.655680 10.534995 23.259899 0.105200 0.355760 0.928638
-31.155680 10.532004 23.146801 0.124640 0.317465 0.940043
-30.655680 10.532004 23.146801 0.018363 0.356834 0.933987
-30.155680 10.532004 23.146801 0.121242 0.376922 0.918276
-29.655680 10.527999 23.033604 0.183837 0.410293 0.893232
-29.155680 10.524001 22.920399 0.082278 0.456810 0.885751
-28.655680 10.524001 22.920399 0.000000 0.458366 0.888764
-28.155682 10.524001 22.920399 0.082275 0.456813 0.885750
-27.655680 10.519996 22.807201 0.082783 0.443031 0.892676
-27.155680 10.519996 22.807201 0.015121 0.416020 0.909230
-26.655680 10.519996 22.807201 0.018890 0.424623 0.905173
-26.155680 10.519996 22.807201 0.000000 0.458418 0.888737
-25.655680 10.519996 22.807201 0.019050 0.424389 0.905280
-25.155680 10.519996 22.807201 -0.019050 0.424389 0.905280
-24.655680 10.519996 22.807201 0.104581 0.424238 0.899491
-24.155680 10.515998 22.694004 0.186597 0.418508 0.888838
-23.655680 10.513000 22.580799 0.200704 0.444974 0.872764
-23.155680 10.509002 22.467701 0.201063 0.444935 0.872701
-22.655680 10.505004 22.354504 0.283352 0.464220 0.839173
-22.155680 10.498000 22.128101 0.295222 0.488375 0.821178
-21.655680 10.493995 22.015003 0.271957 0.520331 0.809503
-21.155680 10.485999 21.788601 0.255804 0.593477 0.763118
-20.655680 10.483001 21.675396 0.020719 0.669669 0.742371
-20.155680 10.485999 21.788601 0.000000 0.691453 0.722422
-19.655680 10.483001 21.675396 0.071122 0.688521 0.721721
-19.155680 10.483001 21.675396 0.093084 0.687827 0.719881
-18.655680 10.478995 21.562199 0.071735 0.688220 0.721947
-18.155680 10.478995 21.562199 0.086157 0.670286 0.737084
-17.655680 10.474998 21.448994 0.174040 0.642436 0.746315
-17.155680 10.471000 21.335896 0.098349 0.649296 0.754150
-16.655680 10.471000 21.335896 0.065581 0.687225 0.723479
-16.155680 10.468001 21.222698 0.075779 0.700529 0.709589
-15.655680 10.468001 21.222698 0.010829 0.706118 0.708012
-15.155680 10.468001 21.222698 0.000000 0.723402 0.690427
-14.655680 10.468001 21.222698 -0.061401 0.747524 0.661391
-14.155680 10.471000 21.335896 -0.140665 0.751679 0.644354
-13.655680 10.474998 21.448994 -0.062872 0.686558 0.724351
-13.155680 10.474998 21.448994 0.000000 0.642325 0.766433
-12.655680 10.474998 21.448994 0.074395 0.643031 0.762218
-12.155680 10.471000 21.335896 0.098031 0.646397 0.756678
-11.655680 10.471000 21.335896 0.000000 0.641979 0.766722
-11.155680 10.471000 21.335896 0.096357 0.613833 0.783534
-10.655680 10.468001 21.222698 0.168556 0.630915 0.757321
-10.155680 10.464004 21.109501 0.253393 0.624630 0.738667
-9.655680 10.456000 20.883198 0.324611 0.601676 0.729804
-9.155680 10.449004 20.656796 0.406839 0.581161 0.704794
-8.655680 10.437003 20.317204 0.424362 0.552224 0.717611
-8.155680 10.429999 20.090900 0.345362 0.572330 0.743749
-7.655680 10.422004 19.864498 0.251266 0.621991 0.741615
-7.155680 10.418998 19.751301 0.242776 0.647019 0.722791
-6.655680 10.410995 19.525005 0.139175 0.665691 0.733134
-6.155680 10.410995 19.525005 0.103293 0.660707 0.743503
-5.655680 10.406997 19.411800 0.145259 0.680810 0.717912
-5.155680 10.403998 19.298603 0.182111 0.658969 0.729792
-4.655680 10.400001 19.185398 0.086247 0.669208 0.738052
-4.155680 10.400001 19.185398 0.156279 0.675305 0.720791
-3.655680 10.391997 18.959103 0.244660 0.649528 0.719899
-3.155680 10.389007 18.845898 0.238939 0.634889 0.734728
-2.655680 10.381003 18.619495 0.352938 0.589178 0.726845
-2.155680 10.373000 18.393200 0.470486 0.560333 0.681667
-1.655680 10.358001 17.940395 0.574718 0.567054 0.590042
-1.155680 10.340003 17.374599 0.596979 0.542343 0.591169
-0.655680 10.325004 16.921803 0.441093 0.597949 0.669249
-0.155680 10.317000 16.695499 0.249844 0.651311 0.716499
0.344320 10.313003 16.582302 0.173398 0.692749 0.700022
0.844320 10.308997 16.469105 0.225436 0.712502 0.664470
1.344320 10.302001 16.242702 0.297785 0.713894 0.633781
1.844320 10.293998 16.016399 0.296247 0.718319 0.629488
2.344320 10.286994 15.789997 0.232635 0.723366 0.650095
2.844320 10.282996 15.676800 0.238530 0.702237 0.670796
3.344320 10.276000 15.450497 0.404440 0.671636 0.620752
3.844320 10.261001 14.997799 0.438653 0.671995 0.596663
4.344320 10.249000 14.658199 0.358744 0.685090 0.633998
4.844320 10.242003 14.431805 0.356071 0.732043 0.580799
5.344320 10.230002 14.092297 0.371784 0.772354 0.515021
5.844320 10.219001 13.752796 0.314903 0.784570 0.534121
6.344320 10.211997 13.526402 0.363522 0.770667 0.523377
6.844320 10.197005 13.073704 0.332000 0.789979 0.515470
7.344320 10.189002 12.847301 0.404231 0.775721 0.484617
7.844320 10.165999 12.168201 0.379788 0.806378 0.453337
8.344320 10.158996 11.941898 0.336128 0.810536 0.479634
8.844320 10.125998 11.117001 0.625422 0.705890 0.332517
9.344320 10.083999 10.159306 0.544760 0.776336 0.317080
10.344320 9.455001 -4.445301 0.435010 0.136706 0.889987
10.844320 9.449996 -4.565006 0.261759 0.316402 0.911796
11.344320 9.444999 -4.684696 0.368221 0.427444 0.825655
11.844320 9.429000 -5.043895 0.588109 0.546974 0.595774
12.344320 9.408996 -5.522701 0.539669 0.603452 0.587029
12.844320 9.388000 -6.001499 0.544678 0.630674 0.552790
13.344320 9.367995 -6.480396 0.601736 0.622035 0.500985
13.844320 9.336997 -7.198596 0.455630 0.680904 0.573385
14.344320 9.325995 -7.437999 0.416194 0.648524 0.637338
14.844320 9.311004 -7.797199 0.466840 0.657478 0.591425
15.344320 9.294997 -8.156300 0.377680 0.678384 0.630201
15.844320 9.284995 -8.395695 0.391667 0.659244 0.641868
16.344320 9.270003 -8.754803 0.524647 0.644321 0.556413
16.844320 9.243995 -9.353405 0.636697 0.615782 0.464143
17.344320 9.212996 -10.071598 0.535325 0.663385 0.522827
17.844320 9.196998 -10.430798 0.595559 0.587596 0.547759
18.344320 9.165999 -11.148998 0.591784 0.644705 0.483887
18.844320 9.146003 -11.627903 0.561404 0.690398 0.456263
19.344320 9.110000 -12.465801 0.588174 0.649094 0.482420
19.844320 9.088996 -12.944702 0.651501 0.621544 0.435006
20.344320 9.037993 -14.141800 0.742159 0.599585 0.299495
20.844320 8.816001 -19.289299 0.563694 0.327438 0.758310
21.344320 8.805999 -19.528702 0.142409 0.411265 0.900322
21.844320 8.805999 -19.528702 -0.098291 0.482509 0.870359
22.344320 8.811004 -19.409000 -0.095379 0.607067 0.788906
22.844320 8.811004 -19.409000 0.147228 0.670255 0.727380
23.344320 8.800002 -19.648399 0.223835 0.728453 0.647499
23.844320 8.794997 -19.768101 0.316318 0.762115 0.564911
24.344320 8.769004 -20.366703 0.488469 0.760627 0.427603
24.844320 8.749000 -20.845497 0.504165 0.758139 0.413573
25.344320 8.718001 -21.563801 0.534926 0.749406 0.390184
25.844320 8.692000 -22.162300 0.570372 0.694052 0.439280
26.344320 8.665999 -22.760902 0.568498 0.687028 0.452551
26.844320 8.640998 -23.359398 0.590103 0.640895 0.490951
27.344320 8.614997 -23.958000 0.694135 0.598502 0.399964
27.844320 8.572997 -24.915600 0.647568 0.708534 0.280420
28.344320 8.485999 -26.950703 0.737714 0.539628 0.405685
28.844320 8.439002 -28.028099 0.700753 0.523733 0.484405
29.344320 8.410003 -28.536503 0.521136 0.471335 0.711520
29.844320 8.396003 -28.790802 0.448239 0.456649 0.768475
30.344320 8.374000 -29.172100 0.592165 0.444241 0.672302
30.844320 8.344993 -29.680500 0.662571 0.407018 0.628758
31.344320 8.317000 -30.188999 0.662698 0.406761 0.628790
31.844320 8.288001 -30.697403 0.695045 0.409146 0.591195
32.344318 8.251998 -31.332897 0.664045 0.464440 0.585952
32.844318 8.222999 -31.841400 0.562477 0.583408 0.585879
33.344318 8.200995 -32.222698 0.582444 0.622524 0.522707
33.844318 8.158004 -32.985401 0.549773 0.668693 0.500598
34.344318 8.136001 -33.366703 0.478217 0.732606 0.484352
34.844318 8.107001 -33.875202 0.455376 0.756183 0.469915
35.344322 8.084998 -34.256500 0.542991 0.718864 0.434047
35.844318 8.027999 -35.273399 0.711866 0.635189 0.299637
36.344318 7.947998 -36.671600 0.679335 0.628415 0.378944
36.844318 7.912002 -37.307102 0.682921 0.644513 0.343833
37.344318 7.847000 -38.451099 0.709180 0.650073 0.272889
37.844318 7.442001 -45.569298 0.200048 0.628653 0.751516
38.344318 7.434997 -45.696400 0.311374 0.585027 0.748859
38.844318 7.420997 -45.950600 0.472652 0.502418 0.724000
39.344318 7.399002 -46.331997 0.553907 0.450319 0.700285
39.844318 7.376998 -46.713299 0.482423 0.444478 0.754789
40.344318 7.363006 -46.967499 0.541930 0.402386 0.737833
40.844318 7.333999 -47.475998 0.626695 0.345004 0.698732
41.344318 7.312004 -47.857300 0.506744 0.320743 0.800209
41.844318 7.298004 -48.111500 0.528795 0.283150 0.800126
42.344318 7.276000 -48.492798 0.509821 0.323323 0.797211
42.844318 7.262001 -48.747002 0.522146 0.354791 0.775556
43.344318 7.232994 -49.255501 0.570623 0.295125 0.766349
43.844318 7.218002 -49.509701 0.506827 0.320256 0.800351
44.344318 7.197006 -49.891098 0.580364 0.335540 0.742018
44.844318 7.175003 -50.272400 0.600797 0.296754 0.742280
45.344318 7.152999 -50.653698 0.599945 0.288112 0.746362
45.844318 7.131996 -51.035000 0.648512 0.323534 0.689026
46.344318 7.095001 -51.670597 0.695827 0.323413 0.641272
46.844318 7.067001 -52.179001 0.636798 0.280356 0.718254
47.344318 7.044998 -52.560398 0.609460 0.231751 0.758188
47.844318 7.023002 -52.941700 0.598957 0.206573 0.773678
48.344318 7.001998 -53.322998 0.654297 0.167028 0.737562
48.844318 6.972999 -53.831501 0.654455 0.166909 0.737449
49.344318 6.951004 -54.212799 0.654397 0.166822 0.737520
49.844318 6.922004 -54.721199 0.757113 0.111421 0.643712
50.344318 6.886001 -55.356800 0.729555 0.181349 0.659440
50.844318 6.857002 -55.865200 0.746080 0.220101 0.628427
51.344318 6.821006 -56.500797 0.801632 0.181401 0.569631
51.844318 6.777999 -57.263401 0.803352 0.176064 0.568882
52.344318 6.740997 -57.898998 0.801539 0.222441 0.555028
52.844318 6.539001 -61.458099 0.585088 0.604183 0.540958
53.344318 6.510002 -61.966499 0.554543 0.584567 0.592252
53.844318 6.488998 -62.347900 0.609702 0.592193 0.526849
54.344318 6.430999 -63.364700 0.729505 0.531881 0.430030
54.844318 6.366004 -64.508698 0.879809 0.373625 0.293838
55.344318 6.272003 -66.161201 0.917306 0.332002 0.219827
-64.905678 9.950995 -8.994205 -0.693651 0.677339 0.245072
-64.405678 10.006995 -7.677501 -0.780385 0.588178 0.212240
-63.905682 10.093001 -5.642398 -0.800689 0.538287 0.262953
-63.405682 10.143996 -4.445400 -0.814070 0.505738 0.285514
-62.905682 10.204993 -3.008899 -0.834145 0.482126 0.267876
-62.405682 10.276000 -1.333004 -0.809262 0.497294 0.312720
-61.905682 10.320998 -0.255603 -0.875091 0.329596 0.354376
-61.405682 10.372001 0.941494 -0.821418 0.461917 0.334523
-60.905682 10.432998 2.378002 -0.831520 0.458775 0.313210
-60.405682 10.484000 3.575001 -0.820352 0.413333 0.395195
-59.905685 10.513999 4.293301 -0.785345 0.439172 0.436304
-59.405682 10.565001 5.490300 -0.827591 0.442291 0.345647
-58.905682 10.615996 6.687397 -0.824445 0.440476 0.355346
-58.405682 10.662002 7.764798 -0.764670 0.448120 0.463107
-57.905682 10.692000 8.482998 -0.751112 0.394824 0.529098
-57.405682 10.717002 9.081501 -0.723088 0.461993 0.513523
-56.905682 10.752997 9.919498 -0.726729 0.478493 0.492859
-56.405682 10.777999 10.517994 -0.702424 0.458161 0.544692
-55.905682 10.808997 11.236301 -0.695435 0.451306 0.559189
-55.405682 10.828994 11.715107 -0.664533 0.461952 0.587364
-54.905682 10.850997 12.394199 -0.697242 0.473868 0.537869
-54.405682 10.869994 12.960201 -0.688560 0.449577 0.569004
-53.905682 10.891997 13.639301 -0.669208 0.457786 0.585314
-53.405682 10.905997 14.091999 -0.664167 0.432307 0.609912
-52.905682 10.924994 14.658001 -0.623098 0.441868 0.645370
-52.405682 10.939994 15.110699 -0.627320 0.415231 0.658827
-51.905682 10.954001 15.563503 -0.476353 0.496334 0.725769
-51.405682 10.961997 15.789799 -0.416458 0.533679 0.736037
-50.905682 10.972999 16.129398 -0.523378 0.524743 0.671357
-50.405682 10.986999 16.582096 -0.548943 0.506846 0.664657
-49.905682 10.998000 16.921703 -0.475452 0.520655 0.709129
-49.405682 11.009002 17.261196 -0.580035 0.463761 0.669690
-48.905682 11.027999 17.827206 -0.595560 0.458937 0.659306
-48.405682 11.039001 18.166706 -0.516868 0.458201 0.723117
-47.905682 11.049994 18.506298 -0.501656 0.422273 0.755001
-47.405682 11.061004 18.845898 -0.551953 0.372084 0.746258
-46.905682 11.071998 19.185398 -0.524062 0.385968 0.759202
-46.405682 11.082999 19.525005 -0.501645 0.422580 0.754837
-45.905682 11.094001 19.864597 -0.501420 0.422644 0.754950
-45.405682 11.104995 20.204098 -0.447907 0.431992 0.782791
-44.905682 11.111999 20.430500 -0.377907 0.497399 0.780885
-44.405682 11.120002 20.656902 -0.356183 0.530546 0.769191
-43.905682 11.126998 20.883198 -0.410106 0.520208 0.749131
-43.405682 11.138000 21.222797 -0.423303 0.532147 0.733235
-42.905682 11.144996 21.449200 -0.363275 0.546954 0.754236
-42.405682 11.152999 21.675503 -0.410409 0.520433 0.748809
-41.905682 11.164001 22.015102 -0.336629 0.526595 0.780627
-41.405682 11.166999 22.128300 -0.328525 0.514257 0.792219
-40.905682 11.179000 22.467793 -0.349415 0.459618 0.816492
-40.405682 11.181998 22.580997 -0.209692 0.519743 0.828188
-39.905682 11.185996 22.694195 -0.284311 0.542378 0.790565
-39.405682 11.193000 22.920597 -0.255764 0.548680 0.795949
-38.905682 11.196998 23.033802 -0.187946 0.554690 0.810553
-38.405682 11.200995 23.146999 -0.204636 0.528097 0.824159
-37.905682 11.204001 23.260204 -0.080030 0.512331 0.855051
-37.405682 11.204001 23.260204 -0.093099 0.538009 0.837782
-36.905682 11.207999 23.373302 -0.107743 0.561686 0.820305
-36.405682 11.207999 23.373302 0.000000 0.568942 0.822378
-35.905682 11.207999 23.373302 0.000000 0.568942 0.822378
-35.405682 11.207999 23.373302 0.000000 0.568942 0.822378
-34.905682 11.207999 23.373302 0.087324 0.589024 0.803384
-34.405682 11.204001 23.260204 0.087432 0.588905 0.803459
-33.905682 11.204001 23.260204 0.077835 0.567021 0.820017
-33.405682 11.200995 23.146999 0.102853 0.505561 0.856638
-32.905682 11.200995 23.146999 0.082274 0.456807 0.885753
-32.405682 11.196998 23.033802 0.113087 0.382558 0.916984
-31.905680 11.196998 23.033802 0.018409 0.356719 0.934030
-31.405680 11.196998 23.033802 0.121125 0.376822 0.918332
-30.905680 11.193000 22.920597 0.194159 0.429745 0.881829
-30.405680 11.190001 22.807400 0.173135 0.526256 0.832514
-29.905680 11.185996 22.694195 0.176874 0.533816 0.826895
-29.405680 11.181998 22.580997 0.112538 0.511682 0.851773
-28.905680 11.181998 22.580997 -0.015583 0.485414 0.874146
-28.405680 11.181998 22.580997 0.015583 0.485414 0.874146
-27.905680 11.181998 22.580997 0.019827 0.477304 0.878514
-27.405680 11.181998 22.580997 0.000000 0.441362 0.897329
-26.905680 11.181998 22.580997 0.070421 0.416463 0.906421
-26.405680 11.179000 22.467793 0.104253 0.423989 0.899647
-25.905680 11.179000 22.467793 0.015518 0.485273 0.874225
-25.405680 11.179000 22.467793 0.012359 0.532406 0.846399
-24.905680 11.179000 22.467793 0.000000 0.552630 0.833427
-24.405680 11.179000 22.467793 0.103514 0.518834 0.848585
-23.905680 11.175002 22.354603 0.195987 0.490031 0.849388
-23.405680 11.171004 22.241497 0.196140 0.489922 0.849415
-22.905680 11.166999 22.128300 0.265416 0.485893 0.832744
-22.405680 11.159995 21.901905 0.368239 0.476190 0.798526
-21.905680 11.152999 21.675503 0.336848 0.488679 0.804815
-21.405680 11.144996 21.449200 0.368697 0.475955 0.798454
-20.905680 11.138000 21.222797 0.280564 0.515701 0.809528
-20.405680 11.134002 21.109600 0.090003 0.598404 0.796123
-19.905680 11.134002 21.109600 0.023722 0.649284 0.760176
-19.405680 11.134002 21.109600 0.080030 0.670775 0.737331
-18.905680 11.130996 20.996403 0.092549 0.687313 0.720441
-18.405680 11.130996 20.996403 0.000000 0.688351 0.725378
-17.905680 11.130996 20.996403 0.090326 0.665564 0.740855
-17.405680 11.126998 20.883198 0.174192 0.641856 0.746778
-16.905680 11.123000 20.770000 0.157512 0.664520 0.730481
-16.405680 11.120002 20.656902 0.079944 0.670374 0.737705
-15.905680 11.120002 20.656902 0.073978 0.653381 0.753406
-15.405680 11.116004 20.543697 0.090296 0.665609 0.740818
-14.905680 11.116004 20.543697 0.083389 0.716721 0.692357
-14.405680 11.111999 20.430500 -0.001839 0.760452 0.649392
-13.905680 11.116004 20.543697 -0.206223 0.758160 0.618600
