37.651798 38.226002 -4.475500 0.381643 0.668887 0.637918
38.151798 38.221989 -4.715101 0.324535 0.671475 0.666182
38.651798 38.218006 -4.954603 0.429221 0.649111 0.628032
39.151798 38.209003 -5.433698 0.530229 0.659583 0.532736
39.651798 38.200993 -5.912900 0.618788 0.632570 0.465787
40.151798 38.183994 -6.871099 0.713858 0.509162 0.480791
40.651798 38.174000 -7.469999 0.558961 0.519811 0.646033
41.151798 38.166996 -7.829301 0.532314 0.431095 0.728559
41.651798 38.160999 -8.188699 0.352926 0.460737 0.814349
42.151798 38.159000 -8.308396 0.299104 0.465366 0.833049
42.651798 38.155003 -8.548001 0.302498 0.403277 0.863633
43.151798 38.153004 -8.667798 0.302422 0.403293 0.863653
43.651798 38.148991 -8.907296 0.302542 0.403144 0.863680
44.151798 38.146992 -9.027101 0.302789 0.403011 0.863656
44.651802 38.142002 -9.266599 0.395137 0.419917 0.817029
45.151798 38.138004 -9.506200 0.302545 0.403086 0.863706
45.651798 38.136005 -9.626000 0.385143 0.380674 0.840685
46.151798 38.129993 -9.985299 0.461849 0.430545 0.775453
46.651798 38.125996 -10.224900 0.509920 0.445176 0.736071
47.151798 38.117008 -10.704000 0.649692 0.470910 0.596778
47.651798 38.105000 -11.422700 0.623876 0.573736 0.530665
48.151798 38.097004 -11.901799 0.605171 0.633537 0.482077
48.651798 38.078007 -12.979798 0.727198 0.629586 0.273505
49.151798 38.050999 -14.536901 0.643394 0.588466 0.489644
49.651798 38.042011 -15.016000 0.586728 0.528945 0.613162
50.151798 38.028004 -15.516702 0.658996 0.446276 0.605444
50.651798 38.011997 -16.024599 0.614321 0.478814 0.627173
51.151798 37.996006 -16.532499 0.590679 0.501256 0.632330
51.651798 37.982990 -16.913401 0.597099 0.462319 0.655541
52.151798 37.967014 -17.421301 0.635466 0.519599 0.571139
52.651798 37.946995 -18.056101 0.682956 0.602073 0.413617
53.151798 37.897999 -19.579802 0.787514 0.550005 0.278058
53.651798 37.853992 -20.976503 0.842695 0.340037 0.417422
54.151798 37.825001 -21.865301 0.710373 0.560279 0.425978
54.651798 37.801014 -22.627100 0.664504 0.620382 0.416607
55.151798 37.574009 -29.737501 -0.386100 0.726375 0.568601
55.651798 37.586002 -29.356604 -0.313316 0.750930 0.581324
56.151798 37.590000 -29.229601 -0.056774 0.776831 0.627144
56.651798 37.590000 -29.229601 0.018751 0.735278 0.677506
57.151798 37.590000 -29.229601 0.055340 0.741617 0.668537
57.651798 37.586002 -29.356604 0.129691 0.794040 0.593869
58.151798 37.582005 -29.483500 -0.138022 0.799802 0.584181
58.651798 37.593998 -29.102602 -0.384124 0.728894 0.566712
59.151798 37.602009 -28.848700 -0.339222 0.768001 0.543234
59.651798 37.614002 -28.467699 -0.363099 0.745293 0.559193
60.151798 37.621998 -28.213800 -0.127665 0.785890 0.605045
60.651798 37.621998 -28.213800 -0.099538 0.790733 0.604015
61.151798 37.630009 -27.959902 -0.133237 0.755021 0.642021
61.651798 37.630009 -27.959902 0.075060 0.750314 0.656807
62.151798 37.625996 -28.086798 0.215864 0.808613 0.547309
62.651798 37.614002 -28.467699 0.282605 0.856893 0.431125
63.151798 37.605991 -28.721701 0.183372 0.867976 0.461512
63.651798 37.602009 -28.848700 0.207480 0.863070 0.460503
64.151802 37.590000 -29.229601 0.214160 0.885001 0.413410
64.651802 37.586002 -29.356604 0.003413 0.888625 0.458621
65.151802 37.590000 -29.229601 -0.070413 0.832750 0.549153
65.651802 37.590000 -29.229601 0.102751 0.808141 0.579957
66.151802 37.524998 -31.261103 0.483408 0.862302 0.150839
-37.598202 37.007999 -72.537613 -0.912709 0.098132 0.396652
-37.098202 37.037998 -71.458199 -0.888788 0.161534 0.428909
-36.598202 37.063999 -70.513718 -0.840611 0.229381 0.490670
-36.098202 37.086002 -69.704170 -0.815870 0.254945 0.518999
-35.598202 37.105000 -69.029541 -0.570029 0.376194 0.730442
-35.098202 37.112003 -68.759689 -0.593739 0.301940 0.745860
-34.598202 37.198002 -65.656387 -0.705393 -0.186229 0.683915
-34.098202 37.209003 -65.251610 -0.719317 -0.148809 0.678556
-33.598202 37.226994 -64.577003 -0.619259 -0.085779 0.780487
-33.098202 37.235004 -64.307137 -0.576478 -0.100134 0.810954
-32.598202 37.246006 -63.902359 -0.608351 -0.108483 0.786219
-32.098202 37.256992 -63.497581 -0.675082 -0.094510 0.731664
-31.598200 37.272007 -62.957878 -0.592044 -0.142493 0.793208
-31.098200 37.279011 -62.688019 -0.546092 -0.116335 0.829608
-30.598200 37.289997 -62.283241 -0.675031 -0.094645 0.731693
-30.098200 37.305012 -61.743542 -0.700123 -0.129172 0.702241
-29.598200 37.319996 -61.203831 -0.601744 -0.087218 0.793912
-29.098200 37.328007 -60.933990 -0.565808 -0.004367 0.824525
-28.598200 37.338993 -60.529209 -0.545563 -0.049449 0.836610
-28.098200 37.345997 -60.259338 -0.562098 -0.083466 0.822848
-27.598200 37.356998 -59.854580 -0.665486 0.000747 0.746410
-27.098200 37.371998 -59.314869 -0.720352 0.034223 0.692764
-26.598200 37.386997 -58.775169 -0.676509 0.107059 0.728611
-26.098200 37.397999 -58.370388 -0.545179 0.106541 0.831522
-25.598200 37.406010 -58.100548 -0.595716 0.133163 0.792079
-25.098200 37.420002 -57.560841 -0.678600 0.191070 0.709220
-24.598200 37.431995 -57.164021 -0.620698 0.249232 0.743382
-24.098200 37.444004 -56.783119 -0.673459 0.276426 0.685596
-23.598200 37.467991 -56.021290 -0.673460 0.276434 0.685591
-23.098200 37.480015 -55.640388 -0.651344 0.317665 0.689086
-22.598200 37.495991 -55.132500 -0.679231 0.359571 0.639808
-22.098200 37.511997 -54.624630 -0.712048 0.393801 0.581299
-21.598200 37.535007 -53.862808 -0.642435 0.434961 0.630941
-21.098200 37.547001 -53.481922 -0.640571 0.481491 0.598193
-20.598200 37.570988 -52.720100 -0.581126 0.539640 0.609165
-20.098200 37.583012 -52.339199 -0.477953 0.514786 0.711728
-19.598200 37.591007 -52.085300 -0.317294 0.490325 0.811730
-19.098200 37.595005 -51.958302 -0.424961 0.443050 0.789376
-18.598200 37.610996 -51.450401 -0.613079 0.555183 0.562055
-18.098200 37.631001 -50.815601 -0.541260 0.566929 0.620991
-17.598200 37.642994 -50.434700 -0.618761 0.568490 0.542175
-17.098200 37.666996 -49.672798 -0.489989 0.662196 0.566929
-16.598200 37.675007 -49.418900 -0.476225 0.637450 0.605695
-16.098200 37.691013 -48.910999 -0.488822 0.550910 0.676425
-15.598200 37.698994 -48.657101 -0.371107 0.574652 0.729421
-15.098200 37.706989 -48.403099 -0.519574 0.541820 0.660661
-14.598200 37.722996 -47.895302 -0.476359 0.456476 0.751473
-14.098200 37.731007 -47.641300 -0.194203 0.386127 0.901771
-13.598200 37.731007 -47.641300 -0.177428 0.235696 0.955493
-13.098200 37.734989 -47.514400 -0.292687 0.039711 0.955383
-12.598200 38.827991 -10.585401 -0.398646 0.724602 0.562168
-12.098200 38.832005 -10.345902 -0.456501 0.746099 0.484709
-11.598200 38.862003 -8.549199 -0.615415 0.684291 0.391165
-11.098200 38.873005 -7.950201 -0.623908 0.598447 0.502593
-10.598200 38.888996 -6.991998 -0.738777 0.567767 0.363109
-10.098200 38.902988 -6.153501 -0.644864 0.618568 0.448915
-9.598200 38.913013 -5.554601 -0.528271 0.636351 0.562127
-9.098200 38.918995 -5.195199 -0.495390 0.635983 0.591705
-8.598200 38.927006 -4.716100 -0.416855 0.668587 0.615811
-8.098200 38.931004 -4.476503 -0.395164 0.672419 0.625858
-7.598200 38.937000 -4.117200 -0.439729 0.678174 0.588827
-7.098200 38.942997 -3.757902 -0.266336 0.691764 0.671213
-6.598200 38.944996 -3.638097 -0.095903 0.684924 0.722276
-6.098200 38.944996 -3.638097 -0.137341 0.681857 0.718476
-5.598200 38.948994 -3.398500 -0.252568 0.678590 0.689728
-5.098200 38.951008 -3.278703 -0.186662 0.652672 0.734286
-4.598200 38.953007 -3.158899 -0.188202 0.602327 0.775746
-4.098200 38.955006 -3.039197 -0.206266 0.574633 0.791992
-3.598200 38.956989 -2.919401 -0.196278 0.552645 0.809974
-3.098200 38.959003 -2.799600 -0.186082 0.532069 0.826000
-2.598200 38.961002 -2.679800 -0.102881 0.539393 0.835745
-2.098200 38.961002 -2.679800 -0.111233 0.560444 0.820689
-1.598200 38.963001 -2.559999 -0.178557 0.580928 0.794129
-1.098200 38.965992 -2.440198 -0.188674 0.602500 0.775497
-0.598200 38.968006 -2.320501 -0.188162 0.602573 0.775565
-0.098200 38.970005 -2.200700 -0.188230 0.602582 0.775541
0.401800 38.972004 -2.080900 -0.095295 0.631088 0.769835
0.901800 38.972004 -2.080900 -0.144300 0.663958 0.733715
1.401800 38.976002 -1.841299 -0.245474 0.691286 0.679607
1.901800 38.978001 -1.721502 -0.076190 0.719442 0.690361
2.401800 38.978001 -1.721502 -0.085095 0.695094 0.713865
2.901800 38.980000 -1.601800 -0.187254 0.651469 0.735203
3.401800 38.981998 -1.482000 -0.093922 0.664048 0.741768
3.901800 38.981998 -1.482000 0.000000 0.686795 0.726851
4.401800 38.981998 -1.482000 0.000000 0.686795 0.726851
4.901800 38.981998 -1.482000 0.098115 0.675904 0.730430
5.401800 38.980000 -1.601800 0.159358 0.690521 0.705539
5.901800 38.978001 -1.721502 0.167143 0.708108 0.686036
6.401800 38.976002 -1.841299 0.236805 0.688736 0.685249
6.901800 38.972004 -2.080900 0.225591 0.746922 0.625473
7.401800 38.970005 -2.200700 -0.026462 0.836038 0.548033
7.901800 38.976002 -1.841299 -0.178653 0.883332 0.433368
8.401800 38.978001 -1.721502 0.000000 0.899946 0.436001
8.901800 38.976002 -1.841299 0.105554 0.898754 0.425559
9.401800 38.974003 -1.961099 0.110250 0.890188 0.442053
9.901800 38.972004 -2.080900 0.050149 0.877060 0.477756
10.401800 38.972004 -2.080900 -0.054678 0.860810 0.505980
10.901800 38.974003 -1.961099 -0.063243 0.837299 0.543076
11.401800 38.974003 -1.961099 -0.016571 0.817663 0.575458
11.901800 38.974003 -1.961099 -0.079095 0.798107 0.597302
12.401800 38.976002 -1.841299 -0.204582 0.798449 0.566237
12.901802 38.980000 -1.601800 -0.165518 0.815236 0.554972
13.401800 38.981998 -1.482000 -0.064147 0.806395 0.587888
13.901800 38.981998 -1.482000 -0.010838 0.789730 0.613359
14.401800 38.981998 -1.482000 0.006188 0.782518 0.622597
14.901800 38.981998 -1.482000 -0.066158 0.789858 0.609711
15.401800 38.983997 -1.362199 -0.015685 0.796050 0.605028
15.901800 38.981998 -1.482000 0.011133 0.808683 0.588140
16.401800 38.983997 -1.362199 -0.071460 0.776802 0.625678
16.901800 38.983997 -1.362199 0.066227 0.755000 0.652372
17.401800 38.981998 -1.482000 0.149643 0.751911 0.642057
17.901800 38.980000 -1.601800 0.065574 0.771589 0.632732
18.401800 38.980000 -1.601800 -0.122840 0.787265 0.604255
18.901800 38.983997 -1.362199 -0.031016 0.807914 0.588484
19.401800 38.981998 -1.482000 0.012268 0.803206 0.595575
19.901800 38.983997 -1.362199 -0.067632 0.798800 0.597783
20.401800 38.983997 -1.362199 0.008503 0.778590 0.627475
20.901800 38.983997 -1.362199 0.086829 0.753449 0.651748
21.401800 38.981998 -1.482000 0.093389 0.755393 0.648583
21.901800 38.981998 -1.482000 0.092814 0.728981 0.678213
22.401800 38.980000 -1.601800 0.189959 0.683197 0.705094
22.901800 38.978001 -1.721502 0.188184 0.648766 0.737353
23.401800 38.976002 -1.841299 0.182489 0.637470 0.748552
23.901800 38.974003 -1.961099 0.083232 0.615175 0.783984
24.401800 38.974003 -1.961099 0.119898 0.534124 0.836861
24.901800 38.972004 -2.080900 0.111957 0.487172 0.866100
25.401800 38.972004 -2.080900 0.086224 0.481191 0.872365
25.901800 38.970005 -2.200700 0.168083 0.559737 0.811445
26.401800 38.968006 -2.320501 0.176837 0.663218 0.727235
26.901800 38.965992 -2.440198 0.069508 0.743289 0.665350
27.401800 38.965992 -2.440198 -0.008491 0.753907 0.656926
27.901800 38.965992 -2.440198 0.068977 0.753730 0.653554
28.401800 38.963001 -2.559999 0.072620 0.747631 0.660132
28.901800 38.963001 -2.559999 0.073687 0.734962 0.674093
29.401800 38.961002 -2.679800 0.158345 0.744618 0.648437
29.901800 38.959003 -2.799600 0.221955 0.755648 0.616224
30.401800 38.955006 -3.039197 0.212869 0.766235 0.606276
30.901800 38.953007 -3.158899 0.260479 0.761426 0.593617
31.401800 38.946995 -3.518301 0.244519 0.766521 0.593848
31.901800 38.944996 -3.638097 0.158399 0.744405 0.648669
32.401798 38.942997 -3.757902 0.293511 0.726642 0.621162
32.901798 38.937000 -4.117200 0.317819 0.761362 0.565084
33.401798 38.933002 -4.356802 0.121979 0.804004 0.581978
33.901798 38.933002 -4.356802 0.006472 0.801970 0.597330
34.401798 38.933002 -4.356802 -0.068221 0.799920 0.596216
34.901798 38.935001 -4.236997 0.003149 0.804323 0.594183
35.401798 38.933002 -4.356802 0.208474 0.784683 0.583790
35.901798 38.928989 -4.596300 0.265126 0.777753 0.569920
36.401798 38.925007 -4.835901 0.212321 0.776496 0.593273
36.901798 38.923008 -4.955701 0.221325 0.792000 0.568992
37.401798 38.918995 -5.195199 0.279049 0.784337 0.554028
37.901798 38.914997 -5.434801 0.276882 0.767153 0.578630
38.401798 38.910999 -5.674398 0.394437 0.745717 0.536960
38.901798 38.900990 -6.273298 0.562549 0.699488 0.440744
39.401798 38.888996 -6.991998 0.545873 0.674065 0.497653
39.901798 38.881001 -7.471097 0.586156 0.626035 0.514297
40.401798 38.871006 -8.069997 0.349651 0.543019 0.763462
40.901798 38.869007 -8.189801 0.317579 0.495406 0.808527
41.401798 38.864994 -8.429399 0.392250 0.413272 0.821795
41.901798 38.860004 -8.668897 0.293310 0.364803 0.883679
42.401798 38.858006 -8.788701 0.251537 0.371567 0.893682
42.901798 38.855991 -8.908502 0.302468 0.403045 0.863752
43.401798 38.852009 -9.148000 0.302478 0.403075 0.863735
43.901794 38.850010 -9.267797 0.292464 0.377564 0.878584
44.401794 38.845997 -9.507401 0.416884 0.382742 0.824449
44.901798 38.841999 -9.747003 0.317179 0.429965 0.845297
45.401798 38.840000 -9.866799 0.342931 0.449079 0.825061
45.901798 38.834003 -10.226098 0.528498 0.436434 0.728159
46.401798 38.827991 -10.585401 0.550330 0.519196 0.653890
46.901798 38.819996 -11.064599 0.641098 0.572297 0.511340
47.401798 38.806004 -11.903100 0.666777 0.631597 0.395594
47.901798 38.794010 -12.621697 0.604606 0.717892 0.345084
48.401798 38.766010 -14.298699 0.614786 0.664173 0.425338
48.901798 38.752995 -15.017400 0.586808 0.479527 0.652465
49.401798 38.743000 -15.391099 0.490022 0.460017 0.740448
49.901798 38.735004 -15.645101 0.567924 0.422042 0.706642
50.401798 38.715992 -16.279902 0.705440 0.360293 0.610364
50.901798 38.700001 -16.787802 0.615160 0.418449 0.668190
51.401798 38.688007 -17.168699 0.620945 0.452425 0.640109
51.901798 38.668003 -17.803602 0.721093 0.510314 0.468619
52.401798 38.640003 -18.692301 0.766602 0.523272 0.372165
52.901798 38.588001 -20.342901 0.675303 0.517907 0.525108
53.401798 38.571995 -20.850798 0.793723 0.384304 0.471502
53.901798 38.528004 -22.247499 0.828229 0.418534 0.372649
54.401798 38.248997 -31.135302 -0.319058 0.858521 0.401426
54.901798 38.261005 -30.754400 -0.356618 0.817293 0.452610
55.401798 38.272999 -30.373503 -0.181465 0.786734 0.590017
55.901798 38.272999 -30.373503 -0.029854 0.860644 0.508330
56.401798 38.272999 -30.373503 0.054250 0.897160 0.438361
56.901798 38.269001 -30.500502 0.040167 0.892374 0.449506
57.401798 38.269001 -30.500502 -0.059968 0.868766 0.491579
57.901798 38.272999 -30.373503 -0.066292 0.826036 0.559705
58.401798 38.272999 -30.373503 -0.206714 0.800098 0.563127
58.901798 38.293003 -29.738703 -0.211612 0.795972 0.567141
59.401798 38.289005 -29.865599 -0.105723 0.835845 0.538689
59.901798 38.309010 -29.230799 -0.201643 0.832702 0.515702
60.401798 38.304996 -29.357801 0.123130 0.840009 0.528416
60.901798 38.216999 -32.151100 -0.043241 0.880880 0.471360
61.401798 38.220997 -32.024097 0.094201 0.857550 0.505701
61.901798 38.209003 -32.404999 0.030179 0.791172 0.610849
62.401798 38.216999 -32.151100 -0.177775 0.834650 0.521302
62.901798 38.220997 -32.024097 -0.189243 0.894118 0.405882
63.401798 38.241001 -31.389299 -0.254029 0.931221 0.261335
63.901798 38.253010 -31.008398 0.006890 0.964060 0.265595
64.401802 38.233006 -31.643200 0.211110 0.941588 0.262382
64.901802 38.225010 -31.897100 0.135775 0.957569 0.254217
-37.848202 37.730000 -73.348000 -0.891156 0.199555 0.407454
-37.348202 37.759007 -72.268639 -0.860498 0.270017 0.432011
-36.848202 37.785007 -71.324150 -0.830433 0.298024 0.470704
-36.348202 37.806995 -70.514580 -0.800835 0.351003 0.485242
-35.848202 37.827991 -69.705032 -0.799342 0.276382 0.533541
-35.348202 37.905003 -66.871567 -0.867584 -0.301574 0.395413
-34.848202 37.930012 -65.927094 -0.772828 -0.072077 0.630509
-34.348202 37.944004 -65.387383 -0.728860 -0.060866 0.681952
-33.848202 37.959003 -64.847672 -0.689554 -0.057476 0.721950
-33.348202 37.970005 -64.442886 -0.649331 -0.030884 0.759879
-32.848202 37.983997 -63.903194 -0.593477 -0.069479 0.801846
-32.348202 37.991993 -63.633324 -0.601348 -0.070866 0.795838
-31.848200 38.006001 -63.093636 -0.677132 -0.024503 0.735453
-31.348200 38.017002 -62.688839 -0.547833 -0.042652 0.835499
-30.848200 38.024006 -62.418991 -0.601325 -0.070962 0.795847
-30.348200 38.038990 -61.879292 -0.677094 -0.024414 0.735492
-29.848200 38.050007 -61.474510 -0.643306 0.037316 0.764699
-29.348200 38.061008 -61.069740 -0.531495 0.078480 0.843418
-28.848200 38.068012 -60.799870 -0.603156 0.073412 0.794238
-28.348200 38.082005 -60.260159 -0.578012 0.025704 0.815624
-27.848200 38.090000 -59.990318 -0.571017 0.001870 0.820936
-27.348200 38.101002 -59.585541 -0.643297 0.037401 0.764702
-26.848200 38.110996 -59.180771 -0.640998 0.102282 0.760697
-26.348200 38.121998 -58.775970 -0.624806 0.140849 0.767971
-25.848200 38.132999 -58.371201 -0.549935 0.112403 0.827609
-25.348200 38.139988 -58.101349 -0.586945 0.121600 0.800443
-24.848200 38.155003 -57.561642 -0.652399 0.203579 0.730021
-24.348200 38.166004 -57.164822 -0.659543 0.167520 0.732762
-23.848200 38.181995 -56.656948 -0.648636 0.252683 0.717929
-23.348200 38.193989 -56.276058 -0.605080 0.373533 0.703101
-22.848200 38.209003 -55.768181 -0.692136 0.310191 0.651713
-22.348200 38.225010 -55.260311 -0.686405 0.290504 0.666675
-21.848200 38.241001 -54.752430 -0.701119 0.339418 0.627078
-21.348200 38.259998 -54.117592 -0.641277 0.392309 0.659437
-20.848200 38.272007 -53.736691 -0.615905 0.402095 0.677481
-20.348200 38.288013 -53.228802 -0.580839 0.515666 0.629853
-19.848200 38.302998 -52.721001 -0.571717 0.521100 0.633714
-19.348200 38.314991 -52.340099 -0.465909 0.405588 0.786401
-18.848200 38.323002 -52.086102 -0.387671 0.381188 0.839289
-18.348200 38.327000 -51.959198 -0.344606 0.481081 0.806106
-17.848200 38.341999 -51.451302 -0.552047 0.605694 0.573043
-17.348200 38.358006 -50.943401 -0.611766 0.612352 0.500767
-16.848200 38.377995 -50.308601 -0.594299 0.599536 0.536064
-16.348200 38.392994 -49.800701 -0.628950 0.549318 0.550156
-15.848200 38.412998 -49.165901 -0.420066 0.549082 0.722532
-15.348200 38.417011 -49.038898 -0.419935 0.508090 0.751997
-14.848200 38.431995 -48.531002 -0.635576 0.373113 0.675892
-14.348200 38.444004 -48.150101 -0.517237 0.332895 0.788446
-13.848200 38.452000 -47.896198 -0.505924 0.164714 0.846706
-13.348200 38.464008 -47.515301 -0.491656 -0.041061 0.869821
-12.848200 38.472004 -47.261402 -0.347243 -0.154702 0.924927
-12.348200 38.472004 -47.261402 -0.155505 -0.376624 0.913221
-11.848200 39.524998 -11.305398 -0.736897 0.639015 0.220553
-11.348200 39.547001 -9.987802 -0.454202 0.837794 0.302988
-10.848200 39.553989 -9.508599 -0.490734 0.817615 0.301141
-10.348200 39.586002 -7.592000 -0.677394 0.659803 0.325264
-9.848200 39.599003 -6.753500 -0.633551 0.664015 0.397111
-9.348200 39.611012 -6.034803 -0.525455 0.660336 0.536520
-8.848200 39.616993 -5.675500 -0.454623 0.665470 0.592002
-8.348200 39.623005 -5.316099 -0.421266 0.674751 0.606008
-7.848200 39.629002 -4.956697 -0.439486 0.667415 0.601173
-7.348200 39.634007 -4.597398 -0.383620 0.684286 0.620152
-6.848200 39.638004 -4.357797 -0.234766 0.709554 0.664393
-6.348200 39.640003 -4.238000 -0.087643 0.680420 0.727563
-5.848200 39.640003 -4.238000 -0.087672 0.680416 0.727563
-5.348200 39.642002 -4.118200 -0.266776 0.709151 0.652637
-4.848200 39.648014 -3.758897 -0.295295 0.670264 0.680843
-4.348200 39.649998 -3.639101 -0.255262 0.647002 0.718491
-3.848200 39.653996 -3.399503 -0.264661 0.593005 0.760460
-3.348200 39.655994 -3.279699 -0.204089 0.567437 0.797723
-2.848200 39.658009 -3.159898 -0.101586 0.581245 0.807362
-2.348200 39.658009 -3.159898 -0.097210 0.586177 0.804330
-1.848200 39.660007 -3.040102 -0.111275 0.559935 0.821030
-1.348200 39.660007 -3.040102 -0.091233 0.587034 0.804405
-0.848200 39.662006 -2.920297 -0.173764 0.623602 0.762185
-0.348200 39.663990 -2.800600 -0.181474 0.639568 0.747008
0.151800 39.666004 -2.680799 -0.093898 0.663696 0.742085
0.651800 39.666004 -2.680799 0.000000 0.686331 0.727289
1.151800 39.666004 -2.680799 -0.017821 0.716266 0.697599
1.651800 39.666004 -2.680799 -0.060798 0.767405 0.638273
2.151800 39.668003 -2.560998 -0.123610 0.797514 0.590501
2.651800 39.670002 -2.441202 -0.224457 0.775076 0.590657
3.151800 39.674000 -2.201601 -0.150615 0.742631 0.652544
3.651800 39.674000 -2.201601 0.000000 0.746051 0.665889
4.151800 39.674000 -2.201601 -0.007771 0.733452 0.679697
4.651800 39.674000 -2.201601 0.073038 0.718894 0.691272
5.151800 39.672001 -2.321397 0.159416 0.690517 0.705530
5.651800 39.670002 -2.441202 0.176099 0.667091 0.723864
6.151800 39.668003 -2.560998 0.189426 0.698277 0.690310
6.651800 39.666004 -2.680799 0.241174 0.723143 0.647225
7.151800 39.662006 -2.920297 0.295764 0.734832 0.610365
7.651800 39.658009 -3.159898 0.126399 0.816544 0.563275
8.151800 39.658009 -3.159898 0.052389 0.836893 0.544854
8.651800 39.655994 -3.279699 0.124553 0.775575 0.618845
9.151800 39.653996 -3.399503 0.073618 0.709829 0.700516
9.651800 39.653996 -3.399503 -0.049965 0.732498 0.678934
10.151800 39.655994 -3.279699 -0.066745 0.783123 0.618274
10.651800 39.655994 -3.279699 -0.118836 0.790742 0.600504
11.151800 39.660007 -3.040102 -0.234310 0.811415 0.535448
11.651800 39.663990 -2.800600 -0.179008 0.816108 0.549475
12.151800 39.666004 -2.680799 -0.137355 0.812683 0.566286
12.651800 39.668003 -2.560998 -0.098253 0.800532 0.591181
13.151800 39.668003 -2.560998 -0.004795 0.774074 0.633076
13.651800 39.668003 -2.560998 -0.122198 0.775916 0.618888
14.151800 39.672001 -2.321397 -0.052602 0.801223 0.596050
14.651800 39.670002 -2.441202 0.063725 0.810746 0.581920
15.151800 39.670002 -2.441202 -0.004950 0.820047 0.572274
15.651800 39.670002 -2.441202 0.070150 0.818239 0.570581
16.151800 39.668003 -2.560998 -0.006058 0.836223 0.548356
16.651800 39.672001 -2.321397 -0.164747 0.851343 0.498070
17.151800 39.674000 -2.201601 0.037845 0.804263 0.593067
17.651800 39.672001 -2.321397 0.077489 0.764190 0.640320
18.151800 39.672001 -2.321397 -0.013497 0.742575 0.669626
18.651800 39.672001 -2.321397 -0.013570 0.742691 0.669497
19.151800 39.672001 -2.321397 0.082769 0.766159 0.637299
19.651800 39.670002 -2.441202 0.014867 0.788147 0.615307
20.151800 39.672001 -2.321397 -0.060059 0.818786 0.570949
20.651800 39.672001 -2.321397 0.144532 0.840110 0.522806
21.151800 39.663990 -2.800600 0.324625 0.851431 0.411926
21.651800 39.660007 -3.040102 0.023341 0.923093 0.383867
22.151800 39.663990 -2.800600 -0.020278 0.925064 0.379269
22.651800 39.638004 -4.357797 0.545142 0.692146 0.473027
23.151800 39.631001 -4.836900 0.348509 0.676344 0.648923
23.651800 39.629002 -4.956697 0.227275 0.606332 0.762042
24.151800 39.625004 -5.196298 0.202933 0.437661 0.875940
24.651800 39.625004 -5.196298 0.000000 0.457756 0.889078
25.151800 39.625004 -5.196298 0.111990 0.486200 0.866642
25.651800 39.623005 -5.316099 0.086330 0.480243 0.872877
26.151800 39.623005 -5.316099 0.000163 0.531527 0.847042
26.651800 39.623005 -5.316099 0.000000 0.594596 0.804024
27.151800 39.623005 -5.316099 -0.023974 0.642309 0.766071
27.651800 39.648014 -3.758897 -0.183244 0.904576 0.384920
28.151800 39.649998 -3.639101 -0.100752 0.891716 0.441238
28.651800 39.651997 -3.519300 0.000000 0.871988 0.489527
29.151800 39.649998 -3.639101 0.193189 0.865402 0.462340
29.651800 39.644001 -3.998403 0.209179 0.861531 0.462611
30.151800 39.642002 -4.118200 0.203272 0.847235 0.490789
30.651800 39.635990 -4.477602 0.253067 0.806247 0.534717
31.151800 39.634007 -4.597398 0.073895 0.821620 0.565226
31.651800 39.634007 -4.597398 0.117594 0.819705 0.560584
32.151798 39.631001 -4.836900 0.274994 0.772110 0.572908
32.651798 39.627003 -5.076501 0.218682 0.718791 0.659938
33.151798 39.625004 -5.196298 0.180329 0.703788 0.687142
33.651798 39.623005 -5.316099 0.072129 0.727555 0.682247
34.151798 39.623005 -5.316099 0.011137 0.745305 0.666631
34.651798 39.623005 -5.316099 -0.057411 0.784082 0.617996
35.151798 39.625004 -5.196298 0.023163 0.808180 0.588480
35.651798 39.623005 -5.316099 0.207189 0.778289 0.592738
36.151798 39.618992 -5.555601 0.313414 0.764033 0.563937
36.651798 39.613010 -5.914999 0.327480 0.770681 0.546634
37.151798 39.608997 -6.154600 0.227969 0.787821 0.572161
37.651798 39.606998 -6.274400 0.202543 0.804876 0.557809
38.151798 39.603001 -6.514001 0.367580 0.777675 0.510006
38.651798 39.595005 -6.993101 0.517235 0.689880 0.506491
39.151798 39.588001 -7.472200 0.530178 0.622272 0.575925
39.651798 39.580006 -7.951398 0.550020 0.519944 0.653557
40.151798 39.574009 -8.310700 0.372370 0.442749 0.815667
40.651798 39.571995 -8.430497 0.284887 0.436955 0.853176
41.151798 39.567997 -8.670102 0.302540 0.403086 0.863708
41.651798 39.566013 -8.789899 0.251571 0.371412 0.893737
42.151798 39.563999 -8.909699 0.293134 0.364511 0.883858
42.651798 39.560001 -9.149201 0.383428 0.393361 0.835613
43.151798 39.556004 -9.388799 0.317188 0.429964 0.845294
43.651798 39.553989 -9.508599 0.220808 0.461828 0.859045
44.151798 39.552006 -9.628400 0.365078 0.464535 0.806799
44.651802 39.547001 -9.987802 0.431843 0.494950 0.754013
45.151798 39.543003 -10.227300 0.362337 0.568542 0.738560
45.651798 39.539005 -10.466897 0.455889 0.610843 0.647330
46.151798 39.529011 -11.065797 0.597471 0.651196 0.467944
46.651798 39.517002 -11.784600 0.623155 0.702103 0.344572
47.151798 39.492008 -13.341798 0.611115 0.738564 0.284713
47.651798 39.474003 -14.419900 0.584382 0.588832 0.558367
48.151798 39.468006 -14.779202 0.519472 0.513152 0.683245
48.651798 39.463001 -15.138600 0.531523 0.345623 0.773322
49.151798 39.450993 -15.519498 0.595549 0.298084 0.745967
49.651798 39.438999 -15.900399 0.561764 0.394323 0.727276
50.151798 39.427006 -16.281298 0.659929 0.380920 0.647606
50.651798 39.407993 -16.916098 0.704193 0.360730 0.611544
51.151798 39.392002 -17.424002 0.686411 0.449907 0.571335
51.651798 39.365009 -18.312799 0.739900 0.528325 0.416437
52.151798 39.340992 -19.074598 0.766067 0.509398 0.391989
52.651798 39.293995 -20.598204 0.698257 0.405030 0.590245
53.151798 39.282001 -20.979101 0.630247 0.425884 0.649163
53.651798 38.906010 -33.167999 -0.488242 0.728048 0.481213
54.151798 38.922001 -32.660099 -0.293548 0.863833 0.409417
54.651798 38.929996 -32.406200 -0.159887 0.913628 0.373791
55.151798 38.934010 -32.279198 0.026036 0.939181 0.342435
55.651798 38.922001 -32.660099 0.145935 0.939725 0.309223
56.151798 38.934010 -32.279198 -0.098020 0.944141 0.314627
56.651798 38.934010 -32.279198 -0.126364 0.928794 0.348387
57.151798 38.948994 -31.771301 -0.320791 0.857989 0.401184
57.651798 38.840000 -35.326401 0.504192 0.651580 0.566774
58.151798 38.824009 -35.834301 0.578833 0.601217 0.550900
60.151798 38.909992 -33.041000 0.141574 0.835341 0.531189
60.651798 38.906010 -33.167999 0.199838 0.833281 0.515469
61.151798 38.899006 -33.421902 0.009371 0.870876 0.491413
61.651798 38.906010 -33.167999 -0.054601 0.801633 0.595317
62.151798 38.906010 -33.167999 0.076039 0.790264 0.608030
62.651798 38.899006 -33.421902 0.216971 0.867950 0.446750
63.151798 38.890995 -33.675800 0.163993 0.905709 0.390894
-37.598202 38.478001 -73.213989 -0.807266 0.290537 0.513722
-37.098202 38.495991 -72.539352 -0.780765 0.377735 0.497718
-36.598202 38.524998 -71.459930 -0.808559 0.327663 0.488743
-36.098202 38.541996 -70.785301 -0.773005 0.368384 0.516485
-35.598202 38.644993 -66.872414 -0.893582 -0.062036 0.444592
-35.098202 38.666004 -66.062859 -0.734195 0.032235 0.678173
-34.598202 38.677006 -65.658073 -0.730082 0.033924 0.682517
-34.098202 38.694996 -64.983437 -0.696256 0.044686 0.716401
-33.598202 38.705006 -64.578659 -0.628586 0.068856 0.774686
-33.098202 38.715992 -64.173859 -0.656631 0.067117 0.751220
-32.598202 38.726994 -63.769089 -0.612790 0.035947 0.789428
-32.098202 38.736988 -63.364307 -0.643315 0.037189 0.764698
-31.598200 38.748005 -62.959534 -0.643320 0.037190 0.764694
-31.098200 38.757999 -62.554749 -0.596121 0.000462 0.802894
-30.598200 38.769001 -62.149971 -0.643322 0.037246 0.764689
-30.098200 38.780003 -61.745178 -0.628506 0.071927 0.774472
-29.598200 38.789997 -61.340389 -0.567826 0.075185 0.819708
-29.098200 38.797001 -61.070560 -0.531503 0.078504 0.843410
-28.598200 38.808002 -60.665771 -0.640977 0.102108 0.760738
-28.098200 38.818989 -60.260979 -0.610756 0.110766 0.784033
-27.598200 38.828999 -59.856201 -0.610722 0.110871 0.784045
-27.098200 38.840000 -59.451420 -0.624817 0.140658 0.767997
-26.598200 38.851002 -59.046638 -0.624720 0.140781 0.768053
-26.098200 38.860996 -58.641861 -0.607015 0.178780 0.774319
-25.598200 38.871998 -58.237091 -0.554687 0.127486 0.822235
-25.098200 38.879002 -57.967232 -0.560700 0.141973 0.815757
-24.598200 38.890003 -57.562439 -0.668985 0.169379 0.723720
-24.098200 38.904011 -57.038658 -0.592835 0.177377 0.785547
-23.598200 38.911991 -56.784740 -0.511607 0.242365 0.824329
-23.098200 38.924000 -56.403820 -0.674948 0.239724 0.697837
-22.598200 38.942997 -55.769001 -0.704698 0.268565 0.656714
-22.098200 38.957996 -55.261139 -0.626400 0.338850 0.701999
-21.598200 38.970005 -54.880249 -0.678603 0.333330 0.654514
-21.098200 38.989002 -54.245411 -0.647572 0.329808 0.686933
-20.598200 39.000004 -53.864510 -0.584440 0.348321 0.732873
-20.098200 39.011997 -53.483620 -0.455845 0.450270 0.767764
-19.598200 39.019993 -53.229698 -0.556651 0.506463 0.658510
-19.098200 39.038990 -52.594898 -0.574746 0.471833 0.668611
-18.598200 39.049992 -52.214001 -0.273004 0.374824 0.885989
-18.098200 39.049992 -52.214001 -0.267992 0.360699 0.893351
-17.598200 39.062000 -51.833099 -0.500566 0.407022 0.764046
-17.098200 39.070011 -51.579102 -0.557829 0.445917 0.699989
-16.598200 39.092991 -50.817402 -0.661034 0.515526 0.545222
-16.098200 39.108006 -50.309498 -0.669221 0.483935 0.563871
-15.598200 39.127003 -49.674599 -0.633442 0.404256 0.659793
-15.098200 39.138996 -49.293800 -0.665676 0.287191 0.688764
-14.598200 39.157993 -48.658901 -0.747836 0.170697 0.641564
-14.098200 39.174000 -48.151100 -0.694106 -0.009846 0.719806
-13.598200 39.188999 -47.643200 -0.578148 -0.133110 0.805001
-13.098200 39.196995 -47.389301 -0.512553 -0.160855 0.843454
-12.598200 39.208012 -47.008400 -0.532495 -0.323246 0.782279
-12.098200 39.220005 -46.627499 -0.473239 -0.472262 0.743648
-11.598200 39.227009 -46.373501 -0.250341 -0.576017 0.778160
-11.098200 39.227009 -46.373501 -0.092132 -0.661695 0.744091
-10.598200 39.230991 -46.246601 -0.203037 -0.672163 0.712021
-10.098200 40.276005 -8.671300 -0.686664 0.674189 0.271960
-9.598200 40.288990 -7.832803 -0.588368 0.741692 0.322051
-9.098200 40.304005 -6.874399 -0.529127 0.743243 0.409407
-8.598200 40.311008 -6.395303 -0.469824 0.736312 0.486939
-8.098200 40.319004 -5.916097 -0.373380 0.734944 0.566079
-7.598200 40.323002 -5.676500 -0.368364 0.731872 0.573299
-7.098200 40.328007 -5.317098 -0.350412 0.731892 0.584419
-6.598200 40.332005 -5.077497 -0.294133 0.726684 0.620819
-6.098200 40.335987 -4.837999 -0.145399 0.684601 0.714269
-5.598200 40.335987 -4.837999 -0.022515 0.646894 0.762247
-5.098200 40.335987 -4.837999 -0.189100 0.662571 0.724735
-4.598200 40.341999 -4.478597 -0.267907 0.736230 0.621443
-4.098200 40.343998 -4.358800 -0.263179 0.759937 0.594334
-3.598200 40.349003 -3.999399 -0.327430 0.727757 0.602627
-3.098200 40.353001 -3.759801 -0.155208 0.714349 0.682360
-2.598200 40.353001 -3.759801 -0.092522 0.702701 0.705444
-2.098200 40.355015 -3.640100 -0.176190 0.666366 0.724509
-1.598200 40.356998 -3.520303 -0.082521 0.651963 0.753747
-1.098200 40.356998 -3.520303 -0.022459 0.647265 0.761934
-0.598200 40.356998 -3.520303 -0.083827 0.668244 0.739204
-0.098200 40.358997 -3.400499 -0.095926 0.684650 0.722532
0.401800 40.358997 -3.400499 0.010208 0.703290 0.710829
0.901800 40.358997 -3.400499 -0.010208 0.703290 0.710829
1.401800 40.358997 -3.400499 0.081806 0.700552 0.708897
1.901800 40.356998 -3.520303 0.210061 0.717452 0.664181
2.401800 40.353001 -3.759801 0.085180 0.739203 0.668074
2.901800 40.355015 -3.640100 -0.253218 0.787732 0.561568
3.401800 40.364002 -3.041097 -0.168366 0.834033 0.525397
3.901800 40.364002 -3.041097 -0.078529 0.814197 0.575254
4.401800 40.366001 -2.921300 -0.075967 0.766489 0.637749
4.901800 40.366001 -2.921300 0.010691 0.727859 0.685644
5.401800 40.366001 -2.921300 0.092864 0.687347 0.720368
5.901800 40.364002 -3.041097 0.294802 0.670481 0.680843
6.401800 40.358997 -3.400499 0.348832 0.716139 0.604534
6.901800 40.355015 -3.640100 0.345064 0.758253 0.553158
7.401800 40.349003 -3.999399 0.231204 0.793422 0.563051
7.901800 40.347004 -4.119203 -0.014981 0.779922 0.625698
8.401800 40.349003 -3.999399 -0.144341 0.737992 0.659192
8.901800 40.351002 -3.879598 -0.064097 0.674540 0.735451
9.401800 40.351002 -3.879598 0.078699 0.640407 0.763993
9.901800 40.349003 -3.999399 0.070061 0.668340 0.740549
10.401800 40.349003 -3.999399 0.000000 0.685848 0.727745
10.901800 40.349003 -3.999399 0.056325 0.701765 0.710179
11.401800 40.347004 -4.119203 0.158014 0.711488 0.684701
11.901800 40.344990 -4.239000 0.105926 0.756759 0.645054
12.401800 40.344990 -4.239000 0.117996 0.818855 0.561741
12.901802 40.341999 -4.478597 0.097289 0.839677 0.534300
13.401800 40.360996 -3.280698 -0.104117 0.821621 0.560446
13.901800 40.360996 -3.280698 0.030582 0.841864 0.538823
14.401800 40.358997 -3.400499 0.057526 0.878430 0.474395
14.901800 40.358997 -3.400499 0.000270 0.871060 0.491177
15.401800 40.358997 -3.400499 -0.000287 0.871668 0.490096
15.901800 40.358997 -3.400499 0.150798 0.862159 0.483675
16.401800 40.353001 -3.759801 0.328033 0.868134 0.372474
16.901800 40.335987 -4.837999 0.384556 0.856509 0.344252
17.401800 40.328007 -5.317098 0.084720 0.825397 0.558160
17.901800 40.360996 -3.280698 -0.221033 0.767960 0.601151
18.401800 40.364002 -3.041097 -0.112147 0.782961 0.611879
18.901800 40.364002 -3.041097 0.062823 0.808781 0.584744
19.401800 40.362003 -3.160902 0.136016 0.818490 0.558188
19.901800 40.360996 -3.280698 0.105169 0.853563 0.510264
20.401800 40.358997 -3.400499 0.147650 0.887749 0.436005
20.901800 40.355015 -3.640100 0.354491 0.853254 0.382484
21.401800 40.341999 -4.478597 0.326339 0.877545 0.351309
21.901800 40.335987 -4.837999 0.160759 0.875086 0.456488
22.401800 40.334003 -4.957803 0.255174 0.761285 0.596096
22.901800 40.330006 -5.197301 0.354112 0.618863 0.701152
23.401800 40.327015 -5.436899 0.155149 0.581550 0.798579
23.901800 40.327015 -5.436899 0.125540 0.505763 0.853489
24.401800 40.325001 -5.556703 0.087551 0.456041 0.885642
24.901800 40.325001 -5.556703 0.098734 0.483209 0.869920
25.401800 40.323002 -5.676500 0.098737 0.483214 0.869917
25.901800 40.323002 -5.676500 0.000000 0.457802 0.889054
26.401800 40.323002 -5.676500 0.014842 0.484603 0.874608
26.901800 40.323002 -5.676500 0.085468 0.510741 0.855476
27.401800 40.321003 -5.796300 0.203021 0.504460 0.839227
27.901800 40.319004 -5.916097 -0.016031 0.633476 0.773596
28.401800 40.323002 -5.676500 -0.316836 0.760664 0.566573
28.901800 40.328007 -5.317098 -0.207798 0.833812 0.511445
29.401800 40.330006 -5.197301 0.017616 0.854680 0.518857
29.901800 40.328007 -5.317098 -0.030062 0.820554 0.570778
30.401800 40.330006 -5.197301 0.097044 0.774086 0.625598
30.901800 40.327015 -5.436899 0.215921 0.703203 0.677410
31.401800 40.325001 -5.556703 0.092192 0.703881 0.704310
31.901800 40.325001 -5.556703 0.092546 0.702370 0.705771
32.401798 40.323002 -5.676500 0.105463 0.658200 0.745420
32.901798 40.323002 -5.676500 0.166114 0.642873 0.747744
33.401798 40.319004 -5.916097 0.166105 0.642832 0.747781
33.901798 40.319004 -5.916097 0.087715 0.679940 0.728002
34.401798 40.316990 -6.035902 0.154320 0.724283 0.672012
34.901798 40.314991 -6.155698 0.201156 0.773790 0.600654
35.401798 40.311008 -6.395303 0.132680 0.813154 0.566725
35.901798 40.311008 -6.395303 0.137782 0.804112 0.578291
36.401798 40.307987 -6.634801 0.298619 0.744002 0.597736
36.901798 40.304005 -6.874399 0.348425 0.742936 0.571531
37.401798 40.297993 -7.233800 0.371881 0.757237 0.536932
37.901798 40.293003 -7.593198 0.326675 0.752361 0.572046
38.401798 40.288990 -7.832803 0.358238 0.747352 0.559581
38.901798 40.283009 -8.192098 0.273804 0.742468 0.611370
39.401798 40.281010 -8.311898 0.280056 0.651226 0.705318
39.901798 40.278004 -8.551499 0.375441 0.518361 0.768340
40.401798 40.274006 -8.791101 0.276440 0.495667 0.823344
40.901798 40.272007 -8.910901 0.210057 0.443705 0.871207
41.401798 40.269993 -9.030698 0.302510 0.402856 0.863826
41.901798 40.266010 -9.270200 0.299150 0.464795 0.833352
42.401798 40.264011 -9.390000 0.299006 0.464703 0.833455
42.901798 40.260990 -9.629598 0.403289 0.439656 0.802534
43.401798 40.257008 -9.869199 0.368944 0.519289 0.770856
43.901794 40.252995 -10.108800 0.397172 0.593834 0.699725
44.401794 40.246998 -10.468099 0.404534 0.610748 0.680691
44.901798 40.243992 -10.707700 0.466644 0.622348 0.628432
45.401798 40.233997 -11.306699 0.579404 0.636215 0.509432
45.901798 40.224995 -11.905599 0.655315 0.649665 0.385354
46.401798 40.190998 -14.061902 0.527329 0.720721 0.449984
46.901798 40.185001 -14.421201 0.407762 0.697205 0.589605
47.401798 40.178989 -14.780599 0.507023 0.549779 0.663831
47.901798 40.174000 -15.140000 0.454706 0.483215 0.748162
48.401798 40.166004 -15.393899 0.322272 0.436942 0.839775
48.901798 40.162006 -15.520898 0.457213 0.358964 0.813696
49.401798 40.147007 -16.028700 0.664356 0.336161 0.667553
49.901798 40.131001 -16.536600 0.645986 0.368860 0.668315
50.401798 40.116001 -17.044500 0.723681 0.321491 0.610679
50.901798 40.096989 -17.679300 0.782397 0.357360 0.510048
51.401798 40.065998 -18.695002 0.803192 0.422994 0.419474
51.901798 40.039005 -19.583803 0.780464 0.493489 0.383855
52.401798 40.007999 -20.599501 0.792726 0.310262 0.524712
52.901798 39.989002 -21.234301 0.694320 0.333717 0.637614
53.401798 39.593006 -34.311798 -0.360891 0.802461 0.475200
53.901798 39.604008 -33.930901 -0.128547 0.865513 0.484110
54.401798 39.585011 -34.565701 0.018041 0.919098 0.393617
54.901798 39.597004 -34.184799 -0.124417 0.922220 0.366102
55.401798 39.597004 -34.184799 0.090902 0.928996 0.358752
55.901798 39.562000 -35.327499 0.600425 0.763021 0.239349
57.401798 39.539005 -36.089298 0.309239 0.749475 0.585370
57.901798 39.531010 -36.343201 0.391415 0.713502 0.581128
-37.348202 39.222996 -73.214859 -0.727421 0.277198 0.627710
-36.848202 39.237003 -72.675148 -0.814941 0.221320 0.535621
-36.348202 39.267994 -71.460793 -0.905836 0.055592 0.419965
-35.848202 39.354008 -68.087601 -0.958424 0.063617 0.278166
-35.348202 39.392002 -66.603394 -0.831383 0.111814 0.544334
-34.848202 39.405994 -66.063698 -0.709206 0.160582 0.686469
-34.348202 39.424000 -65.389053 -0.736732 0.133533 0.662868
-33.848202 39.433994 -64.984268 -0.605018 0.179061 0.775816
-33.348202 39.443989 -64.579498 -0.673035 0.169784 0.719859
-32.848202 39.457996 -64.039787 -0.661301 0.136838 0.737534
-32.348202 39.468006 -63.634979 -0.624784 0.140064 0.768133
-31.848200 39.478992 -63.230198 -0.664479 0.134807 0.735047
-31.348200 39.493000 -62.690491 -0.604164 0.091311 0.791611
-30.848200 39.499989 -62.420639 -0.549859 0.111986 0.827717
-30.348200 39.510014 -62.015862 -0.607000 0.178352 0.774430
-29.848200 39.520008 -61.611080 -0.635328 0.162967 0.754851
-29.348200 39.531010 -61.206280 -0.545184 0.106339 0.831544
-28.848200 39.538013 -60.936440 -0.549849 0.112132 0.827703
-28.348200 39.548008 -60.531658 -0.640888 0.102118 0.760811
-27.848200 39.558002 -60.126869 -0.548399 0.119156 0.827684
-27.348200 39.565006 -59.857010 -0.541842 0.184913 0.819887
-26.848200 39.576008 -59.452229 -0.617746 0.210811 0.757594
-26.348200 39.586002 -59.047451 -0.556701 0.219329 0.801236
-25.848200 39.593006 -58.777580 -0.564963 0.245161 0.787854
-25.348200 39.606998 -58.237888 -0.583797 0.199429 0.787025
-24.848200 39.614002 -57.968021 -0.595350 0.145929 0.790103
-24.348200 39.627995 -57.428310 -0.665635 0.168540 0.726997
-23.848200 39.639011 -57.039459 -0.504726 0.221111 0.834483
-23.348200 39.646000 -56.785542 -0.588809 0.175982 0.788882
-22.848200 39.660999 -56.277691 -0.661217 0.191277 0.725400
-22.348200 39.672993 -55.896801 -0.574467 0.322200 0.752446
-21.848200 39.684010 -55.515888 -0.667743 0.306919 0.678174
-21.348200 39.703007 -54.881081 -0.711099 0.288771 0.641053
-20.848200 39.717991 -54.373219 -0.623249 0.337422 0.705483
-20.348200 39.728992 -53.992329 -0.411358 0.398110 0.819935
-19.848200 39.733006 -53.865360 -0.386322 0.422603 0.819855
-19.348200 39.744007 -53.484478 -0.591857 0.438552 0.676296
-18.848200 39.759007 -52.976601 -0.644200 0.422404 0.637637
-18.348200 39.774998 -52.468800 -0.368920 0.411459 0.833427
-17.848200 39.778004 -52.341801 -0.408157 0.385931 0.827324
-17.348200 39.789997 -51.960899 -0.509749 0.332462 0.793489
-16.848200 39.797001 -51.707001 -0.591586 0.305312 0.746197
-16.348200 39.815998 -51.072201 -0.737656 0.335929 0.585675
-15.848200 39.834995 -50.437302 -0.804707 0.226504 0.548765
-15.348200 39.857990 -49.675602 -0.771254 0.061974 0.633504
-14.848200 39.873005 -49.167702 -0.777367 -0.055425 0.626601
-14.348200 39.899006 -48.278999 -0.808481 -0.173617 0.562330
-13.848200 39.918003 -47.644100 -0.646814 -0.311108 0.696307
-13.348200 39.929005 -47.263199 -0.547339 -0.350191 0.760123
-12.848200 39.940998 -46.882301 -0.595647 -0.368419 0.713773
-12.348200 39.955997 -46.374500 -0.595783 -0.368468 0.713634
-11.848200 39.966999 -45.993599 -0.477079 -0.423364 0.770168
-11.348200 39.974995 -45.739700 -0.301632 -0.551194 0.777948
-10.848200 39.978001 -45.612698 -0.261575 -0.650622 0.712930
-10.348200 39.985996 -45.358799 -0.139721 -0.734858 0.663673
-9.848200 39.974995 -45.739700 0.284196 -0.798312 0.530971
-9.348200 40.974003 -9.271401 -0.654293 0.721799 0.225626
-8.848200 40.995991 -7.833902 -0.586824 0.722104 0.366339
-8.348200 41.004993 -7.234899 -0.449019 0.754662 0.478401
-7.848200 41.011005 -6.875497 -0.414813 0.762568 0.496407
-7.348200 41.018009 -6.396299 -0.433620 0.738061 0.516953
-6.848200 41.022999 -6.037000 -0.337214 0.753429 0.564474
-6.348200 41.027012 -5.797399 -0.316662 0.761285 0.565836
-5.848200 41.032001 -5.437997 -0.260931 0.720931 0.642008
-5.348200 41.034000 -5.318201 -0.079226 0.670110 0.738021
-4.848200 41.034000 -5.318201 -0.047778 0.688042 0.724096
-4.348200 41.034000 -5.318201 -0.095804 0.695224 0.712380
-3.848200 41.035999 -5.198400 -0.240409 0.690577 0.682134
-3.348200 41.039997 -4.958799 -0.289768 0.727676 0.621709
-2.848200 41.042988 -4.719202 -0.272863 0.749356 0.603334
-2.348200 41.047001 -4.479600 -0.225511 0.739061 0.634770
-1.848200 41.049000 -4.359800 -0.160027 0.737679 0.655912
-1.348200 41.050999 -4.240003 -0.143678 0.737410 0.659988
-0.848200 41.051991 -4.120199 -0.068626 0.733899 0.675784
-0.348200 41.051991 -4.120199 -0.092146 0.740556 0.665648
0.151800 41.054005 -4.000398 0.000000 0.722461 0.691411
0.651800 41.051991 -4.120199 -0.016948 0.703872 0.710125
1.151800 41.054005 -4.000398 0.000000 0.687960 0.725748
1.651800 41.051991 -4.120199 0.165590 0.661306 0.731611
2.151800 41.050999 -4.240003 0.195533 0.617758 0.761670
2.651800 41.049000 -4.359800 0.152973 0.615671 0.773013
3.151800 41.047001 -4.479600 0.224936 0.653953 0.722322
3.651800 41.042988 -4.719202 0.189209 0.748500 0.635569
4.151800 41.051991 -4.120199 -0.362025 0.838716 0.406808
4.651800 41.058002 -3.760797 -0.139921 0.841250 0.522227
5.151800 41.058002 -3.760797 0.000000 0.841649 0.540024
5.651800 41.058002 -3.760797 0.178806 0.823721 0.538063
6.151800 41.051991 -4.120199 0.388912 0.798342 0.459780
6.651800 41.042988 -4.719202 0.326604 0.812110 0.483535
7.151800 41.039997 -4.958799 0.109088 0.786529 0.607842
7.651800 41.039997 -4.958799 -0.065786 0.753488 0.654163
8.151800 41.041004 -4.838998 -0.172561 0.720088 0.672083
8.651800 41.042988 -4.719202 -0.154412 0.724482 0.671775
9.151800 41.045002 -4.599397 -0.077137 0.730760 0.678263
9.651800 41.045002 -4.599397 0.010202 0.702577 0.711534
10.151800 41.045002 -4.599397 0.000000 0.685351 0.728213
10.651800 41.045002 -4.599397 0.000000 0.685351 0.728213
11.151800 41.045002 -4.599397 0.093982 0.662710 0.742955
11.651800 41.042988 -4.719202 0.249585 0.631236 0.734335
12.151800 41.039997 -4.958799 0.320031 0.664556 0.675237
12.651800 41.035999 -5.198400 0.312353 0.718724 0.621185
13.151800 41.032001 -5.437997 0.311378 0.762672 0.566900
13.651800 41.025013 -5.917203 0.302604 0.716945 0.628030
14.151800 41.022999 -6.037000 0.131615 0.640425 0.756659
14.651800 41.021000 -6.156702 0.116402 0.561433 0.819294
15.151800 41.021000 -6.156702 -0.116391 0.560319 0.820058
15.651800 41.022999 -6.037000 0.002319 0.576033 0.817424
16.151800 41.021000 -6.156702 0.033732 0.584235 0.810884
16.651800 41.022999 -6.037000 -0.171099 0.601870 0.780050
17.151800 41.025013 -5.917203 -0.000000 0.583151 0.812364
17.651800 41.022999 -6.037000 0.164057 0.610608 0.774754
18.151800 41.021000 -6.156702 -0.036736 0.515154 0.856310
18.651800 41.022999 -6.037000 -0.081703 0.511525 0.855375
19.151800 41.022999 -6.037000 0.000170 0.594045 0.804432
19.651800 41.022999 -6.037000 0.000204 0.596996 0.802244
20.151800 41.022999 -6.037000 -0.116189 0.559273 0.820801
20.651800 41.025013 -5.917203 -0.072648 0.593073 0.801865
21.151800 41.025013 -5.917203 0.005780 0.614597 0.788820
21.651800 41.025013 -5.917203 -0.111208 0.578205 0.808277
22.151800 41.027012 -5.797399 -0.073883 0.596988 0.798841
22.651800 41.027012 -5.797399 0.116657 0.599576 0.791770
23.151800 41.025013 -5.917203 0.098939 0.545857 0.832016
23.651800 41.025013 -5.917203 0.000000 0.510927 0.859624
24.151800 41.025013 -5.917203 0.014864 0.484379 0.874732
24.651800 41.025013 -5.917203 0.098746 0.482950 0.870063
25.151800 41.022999 -6.037000 0.098776 0.482938 0.870065
25.651800 41.022999 -6.037000 0.014830 0.484347 0.874750
26.151800 41.022999 -6.037000 0.093379 0.530847 0.842307
26.651800 41.021000 -6.156702 0.083032 0.564288 0.821392
27.151800 41.021000 -6.156702 0.102543 0.538036 0.836661
27.651800 41.020008 -6.276597 0.202728 0.504115 0.839505
28.151800 41.018009 -6.396299 0.013029 0.578646 0.815475
28.651800 41.020008 -6.276597 -0.175210 0.681734 0.710310
29.151800 41.021000 -6.156702 -0.011265 0.751098 0.660095
29.651800 41.020008 -6.276597 -0.057174 0.740173 0.669981
30.151800 41.022999 -6.037000 -0.145291 0.738643 0.658254
30.651800 41.022999 -6.037000 0.017723 0.714972 0.698928
31.151800 41.022999 -6.037000 0.100982 0.682967 0.723436
31.651800 41.021000 -6.156702 0.074164 0.704884 0.705435
32.151798 41.021000 -6.156702 0.092421 0.686435 0.721294
32.651798 41.020008 -6.276597 0.159125 0.689047 0.707032
33.151798 41.018009 -6.396299 0.184173 0.683301 0.706526
33.651798 41.016010 -6.516103 0.223076 0.681058 0.697422
34.151798 41.011997 -6.755701 0.295723 0.708053 0.641255
34.651798 41.009007 -6.995302 0.248976 0.743533 0.620620
35.151798 41.007008 -7.115098 0.217510 0.759918 0.612547
35.651798 41.002995 -7.354703 0.145149 0.808830 0.569848
36.151798 41.002995 -7.354703 0.172762 0.824063 0.539513
36.651798 40.998005 -7.714097 0.309944 0.785229 0.536050
37.151798 40.993992 -7.953699 0.298663 0.737303 0.605957
37.651798 40.991001 -8.193303 0.349344 0.706384 0.615613
38.151798 40.985004 -8.552697 0.420963 0.688614 0.590423
38.651798 40.980000 -8.912000 0.282010 0.644358 0.710825
39.151798 40.978001 -9.031800 0.120271 0.645019 0.754643
39.651798 40.978001 -9.031800 0.107027 0.644958 0.756687
40.151798 40.976002 -9.151597 0.206621 0.572611 0.793363
40.651798 40.974003 -9.271401 0.097210 0.534781 0.839381
41.151798 40.974003 -9.271401 0.190497 0.509197 0.839303
41.651798 40.970005 -9.510999 0.367772 0.495354 0.787000
42.151798 40.966999 -9.750600 0.287985 0.516289 0.806542
42.651798 40.965000 -9.870400 0.349001 0.521462 0.778637
43.151798 40.959995 -10.229798 0.493284 0.513641 0.702029
43.651798 40.953999 -10.589200 0.484169 0.568292 0.665300
44.151798 40.948994 -10.948602 0.453700 0.619689 0.640423
44.651802 40.943012 -11.307900 0.513102 0.634219 0.578353
45.151798 40.936008 -11.787099 0.592654 0.640340 0.488596
45.651798 40.909000 -13.584100 0.730753 0.611762 0.302900
46.151798 40.892002 -14.662202 0.552531 0.495786 0.670004
46.651798 40.889011 -14.901799 0.376367 0.511294 0.772610
47.151798 40.884998 -15.141400 0.400182 0.493267 0.772361
