-61.279629 -42.263699 -18.721298 -0.149971 -0.703769 0.694419
-60.779629 -42.313000 -19.201599 -0.094126 -0.425568 0.900018
-59.779629 -41.660500 -12.837602 -0.654754 -0.701420 0.281617
-59.279629 -41.500500 -11.276601 -0.585555 -0.749953 0.307727
-58.779629 -41.365101 -9.955804 -0.668270 -0.675140 0.312410
-58.279629 -41.241901 -8.754998 -0.706840 -0.627541 0.326450
-57.779629 -41.081898 -7.194001 -0.691500 -0.607599 0.390705
-57.279629 -40.995701 -6.353501 -0.654315 -0.583831 0.480639
-56.779629 -40.921898 -5.632996 -0.638643 -0.516569 0.570344
-56.279629 -40.872597 -5.152703 -0.556737 -0.501467 0.662250
-55.779629 -40.823399 -4.672402 -0.566322 -0.499423 0.655634
-55.279629 -40.774101 -4.192101 -0.528021 -0.499616 0.686715
-54.779633 -40.737198 -3.831902 -0.463979 -0.560968 0.685594
-54.279629 -40.700298 -3.471703 -0.308296 -0.601163 0.737263
-53.779629 -40.688000 -3.351601 -0.278392 -0.612121 0.740139
-53.279629 -40.650997 -2.991402 -0.284577 -0.663410 0.692029
-52.779629 -40.638699 -2.871300 -0.220345 -0.665748 0.712901
-52.279629 -40.614098 -2.631096 -0.240893 -0.670559 0.701656
-51.779629 -40.601799 -2.511101 -0.074891 -0.686775 0.723002
-51.279629 -40.601799 -2.511101 -0.163126 -0.675312 0.719266
-50.779629 -40.564800 -2.150795 -0.285637 -0.706162 0.647878
-50.279629 -40.552498 -2.030800 -0.183836 -0.782825 0.594466
-49.779629 -40.515598 -1.670502 -0.329730 -0.839122 0.432612
-49.279629 -40.417099 -0.709900 -0.615901 -0.709523 0.342409
-48.779629 -40.293999 0.490798 -0.586410 -0.678869 0.441882
-48.279629 -40.232498 1.091201 -0.471921 -0.698583 0.537840
-47.779629 -40.183197 1.571495 -0.399668 -0.680198 0.614489
-47.279629 -40.158600 1.811698 -0.330852 -0.693936 0.639524
-46.779629 -40.121696 2.171905 -0.332799 -0.685719 0.647328
-46.279629 -40.097000 2.411994 -0.332114 -0.688423 0.644805
-45.779629 -40.060101 2.772300 -0.355846 -0.685532 0.635154
-45.279629 -40.035500 3.012405 -0.279077 -0.715933 0.639965
-44.779629 -40.010899 3.252601 -0.330630 -0.694263 0.639283
-44.279629 -39.973896 3.612800 -0.341961 -0.676471 0.652265
-43.779629 -39.949299 3.852905 -0.290553 -0.678691 0.674506
-43.279629 -39.924698 4.093101 -0.287597 -0.666181 0.688106
-42.779629 -39.900101 4.333198 -0.239850 -0.656570 0.715114
-42.279629 -39.887798 4.453300 -0.156808 -0.673706 0.722171
-41.779629 -39.875401 4.573394 -0.150419 -0.656973 0.738756
-41.279629 -39.863098 4.693496 -0.091536 -0.642685 0.760643
-40.779629 -39.863098 4.693496 -0.002538 -0.680137 0.733081
-40.279629 -39.863098 4.693496 -0.077481 -0.694727 0.715088
-39.779629 -39.850800 4.813606 -0.001466 -0.666870 0.745172
-39.279629 -39.863098 4.693496 0.014285 -0.682138 0.731084
-38.779629 -39.850800 4.813606 0.000000 -0.710204 0.703996
-38.279629 -39.863098 4.693496 0.063091 -0.716777 0.694442
-37.779629 -39.863098 4.693496 0.061712 -0.742530 0.666964
-37.279629 -39.875401 4.573394 0.070582 -0.767277 0.637420
-36.779629 -39.875401 4.573394 -0.098913 -0.803995 0.586351
-36.279629 -39.838497 4.933601 -0.291425 -0.812016 0.505669
-35.779629 -39.801598 5.293899 -0.145665 -0.809171 0.569231
-35.279629 -39.801598 5.293899 0.000000 -0.813550 0.581495
-34.779629 -39.801598 5.293899 0.092025 -0.820030 0.564873
-34.279629 -39.826202 5.053695 0.094019 -0.815058 0.571699
-33.779629 -39.826202 5.053695 0.081475 -0.767634 0.635689
-33.279629 -39.838497 4.933601 0.144094 -0.724201 0.674366
-32.779629 -39.850800 4.813606 0.148744 -0.735915 0.660533
-32.279629 -39.863098 4.693496 0.242008 -0.743810 0.623041
-31.779631 -39.900101 4.333198 0.339311 -0.746147 0.572828
-31.279631 -39.936996 3.972999 0.270557 -0.788343 0.552552
-30.779631 -39.961601 3.732894 0.176995 -0.821357 0.542260
-30.279631 -39.973896 3.612800 0.164875 -0.849555 0.501072
-29.779631 -40.010899 3.252601 0.171931 -0.858887 0.482446
-29.279631 -40.023197 3.132499 0.161915 -0.858260 0.487004
-28.779631 -40.060101 2.772300 0.022751 -0.857239 0.514416
-28.279631 -40.035500 3.012405 -0.136547 -0.860626 0.490590
-27.779631 -40.023197 3.132499 -0.123762 -0.880842 0.456947
-27.279631 -39.998501 3.372604 -0.121862 -0.887169 0.445062
-26.779631 -39.986198 3.492698 -0.004351 -0.893427 0.449188
-26.279631 -39.998501 3.372604 0.033165 -0.869778 0.492327
-25.779631 -39.998501 3.372604 0.000000 -0.836927 0.547315
-25.279631 -39.998501 3.372604 0.003536 -0.843193 0.537600
-24.779631 -39.998501 3.372604 0.137974 -0.847742 0.512149
-24.279631 -40.060101 2.772300 0.182064 -0.793882 0.580176
-23.779631 -40.060101 2.772300 0.111019 -0.803593 0.584734
-23.279631 -40.084698 2.532104 0.309116 -0.779311 0.545088
-22.779631 -40.133999 2.051803 0.369521 -0.688679 0.623839
-22.279631 -40.158600 1.811698 0.315228 -0.618615 0.719685
-21.779631 -40.183197 1.571495 0.286980 -0.650486 0.703215
-21.279631 -40.207802 1.331405 0.220889 -0.676235 0.702791
-20.779631 -40.220097 1.211303 0.193133 -0.690075 0.697493
-20.279631 -40.244801 0.971099 0.288945 -0.682220 0.671630
-19.779631 -40.269398 0.730995 0.316687 -0.679687 0.661616
-19.279631 -40.306297 0.370704 0.325266 -0.569170 0.755147
-18.779631 -40.318600 0.250701 0.263877 -0.451246 0.852494
-18.279631 -40.343201 0.010498 0.176052 -0.364778 0.914299
-17.779631 -40.343201 0.010498 0.166795 -0.303627 0.938078
-17.279631 -40.355598 -0.109597 0.334940 -0.363540 0.869284
-16.779631 -40.404797 -0.589898 0.485778 -0.627365 0.608632
-16.279631 -40.490997 -1.430398 0.377390 -0.707272 0.597782
-15.779630 -40.503300 -1.550499 0.259540 -0.627397 0.734174
-15.279630 -40.527901 -1.790596 0.326925 -0.586824 0.740782
-14.779630 -40.552498 -2.030800 0.417446 -0.616114 0.667939
-14.279630 -40.614098 -2.631096 0.444903 -0.684748 0.577220
28.720369 -36.976997 39.201202 -0.789454 -0.163841 0.591539
29.220369 -36.925499 39.882195 -0.788469 -0.095039 0.607687
29.720369 -36.873997 40.563202 -0.803836 -0.075061 0.590096
30.220369 -36.813999 41.358200 -0.687687 -0.027470 0.725488
30.720369 -36.788200 41.699203 -0.679050 0.001987 0.734090
31.220369 -36.745300 42.266197 -0.684978 0.033305 0.727802
31.720369 -36.710999 42.720200 -0.684981 0.093073 0.722591
32.220371 -36.676697 43.174202 -0.670802 0.062573 0.738992
32.720371 -36.642399 43.628197 -0.671094 0.062461 0.738736
33.220371 -36.608002 44.083199 -0.671931 0.125060 0.729979
33.720371 -36.573696 44.537201 -0.671769 0.124838 0.730166
34.220371 -36.539398 44.991203 -0.655601 0.160437 0.737867
34.720371 -36.505100 45.445206 -0.676885 0.211511 0.705047
35.220371 -36.470798 45.899200 -0.607976 0.226578 0.760938
35.720371 -36.445000 46.240204 -0.672380 0.203774 0.711605
36.220371 -36.393600 46.921204 -0.657397 0.166276 0.734970
36.720371 -36.367798 47.261200 -0.615331 0.163406 0.771146
37.220371 -36.333500 47.715202 -0.667956 0.185045 0.720829
37.720371 -36.299198 48.170204 -0.608261 0.232423 0.758946
38.220371 -36.273399 48.510201 -0.591765 0.263334 0.761886
38.720371 -36.239101 48.964203 -0.590093 0.249626 0.767774
39.220371 -36.213398 49.305199 -0.490298 0.266330 0.829865
39.720371 -36.196201 49.532196 -0.323592 0.217717 0.920808
40.220371 -36.187599 49.645203 -0.130231 0.079768 0.988270
40.720371 -36.187599 49.645203 -0.110943 0.040478 0.993002
41.220371 -36.179100 49.759201 -0.111127 0.040094 0.992997
41.720371 -36.179100 49.759201 -0.042801 -0.017508 0.998930
75.220367 -39.961601 3.732894 -0.876965 -0.320523 0.358046
75.720367 -39.801598 5.293899 -0.810749 -0.362443 0.459697
76.220367 -39.727699 6.014305 -0.783500 -0.359762 0.506655
76.720367 -39.616898 7.095001 -0.827040 -0.276094 0.489671
77.220367 -39.542999 7.815399 -0.768776 -0.292339 0.568789
77.720367 -39.456898 8.656005 -0.776251 -0.226614 0.588287
78.220367 -39.395302 9.256400 -0.719343 -0.156106 0.676887
78.720367 -39.346100 9.736701 -0.614230 -0.056450 0.787105
79.220367 -39.309101 10.096900 -0.566680 -0.034082 0.823233
79.720367 -39.272198 10.457099 -0.535068 -0.021730 0.844530
80.220367 -39.247601 10.697295 -0.504645 -0.031233 0.862762
80.720367 -39.210701 11.057502 -0.504620 -0.031270 0.862775
81.220367 -39.185997 11.297698 -0.523858 0.003842 0.851797
81.720367 -39.149097 11.657897 -0.568783 0.036622 0.821672
82.220367 -39.112202 12.018096 -0.490481 0.078517 0.867908
82.720367 -39.087498 12.258300 -0.434769 0.081332 0.896862
83.220367 -39.062901 12.498397 -0.452922 0.120274 0.883400
83.720367 -39.038300 12.738601 -0.354043 0.165125 0.920536
84.220367 -39.026001 12.858596 -0.311178 0.168229 0.935344
84.720367 -39.001400 13.098800 -0.311260 0.168208 0.935320
85.220367 -38.989098 13.218902 -0.354108 0.165177 0.920502
85.720367 -38.964401 13.459006 -0.412559 0.201518 0.888361
86.220367 -38.939796 13.699203 -0.328132 0.200797 0.923044
86.720367 -38.927502 13.819198 -0.117233 0.217010 0.969104
87.220367 -38.927502 13.819198 -0.228552 0.289951 0.929351
87.720367 -38.902897 14.059402 -0.207936 0.334384 0.919212
88.220367 -38.902897 14.059402 -0.133930 0.336654 0.932055
88.720367 -38.890598 14.179496 -0.228096 0.330679 0.915764
89.220367 -38.878300 14.299598 -0.228061 0.330702 0.915764
89.720367 -38.865898 14.419600 -0.228044 0.330741 0.915754
90.220367 -38.853600 14.539702 -0.113549 0.377225 0.919135
90.720367 -38.853600 14.539702 -0.116233 0.373061 0.920497
91.220367 -38.841297 14.659797 -0.204278 0.372269 0.905365
91.720367 -38.828999 14.779799 -0.090647 0.413668 0.905904
92.220367 -38.828999 14.779799 -0.019051 0.448453 0.893603
92.720367 -38.828999 14.779799 0.000000 0.482179 0.876072
93.220367 -38.828999 14.779799 0.019051 0.448453 0.893603
93.720367 -38.828999 14.779799 -0.002899 0.476964 0.878918
94.220367 -38.828999 14.779799 0.157030 0.535493 0.829812
94.720367 -38.853600 14.539702 0.316297 0.513520 0.797655
95.220367 -38.865898 14.419600 0.368726 0.508307 0.778245
95.720367 -38.902897 14.059402 0.608686 0.429315 0.667226
96.220367 -38.952099 13.579101 0.623630 0.434611 0.649769
96.720367 -39.001400 13.098800 0.627715 0.390842 0.673214
97.220367 -39.038300 12.738601 0.268873 0.503194 0.821281
97.720367 -39.038300 12.738601 0.000000 0.543953 0.839115
-83.529633 -42.299198 -25.988098 -0.385626 -0.787580 0.480636
-83.029633 -42.249199 -25.481098 -0.375757 -0.739244 0.558861
-82.529633 -42.211800 -25.100899 -0.346832 -0.672151 0.654156
-82.029633 -42.186798 -24.847401 -0.196530 -0.672297 0.713717
-81.529633 -42.174500 -24.727299 -0.037491 -0.692577 0.720369
-81.029633 -42.186798 -24.847401 0.000000 -0.722889 0.690964
-80.529633 -42.174500 -24.727299 -0.069662 -0.745922 0.662380
-80.029633 -42.174500 -24.727299 0.056463 -0.769005 0.636744
-79.529633 -42.186798 -24.847401 0.126239 -0.788186 0.602350
-79.029633 -42.199299 -24.974102 0.187057 -0.790097 0.583743
-78.529633 -42.224300 -25.227600 0.316258 -0.790170 0.524988
-78.029633 -42.274200 -25.734600 0.346727 -0.802635 0.485343
-77.529633 -42.311600 -26.114899 0.319978 -0.805595 0.498629
-77.029633 -42.349098 -26.495098 0.423763 -0.768378 0.479603
-76.529633 -42.424000 -27.255600 0.534565 -0.695232 0.480513
-76.029633 -42.473900 -27.762501 0.433906 -0.711460 0.552766
-75.029633 -42.785999 -30.931202 0.400298 -0.848215 0.346833
-74.529633 -42.861000 -31.691700 0.008047 -0.887307 0.461108
-74.029633 -42.848499 -31.564899 -0.082001 -0.873525 0.479823
-65.529633 -42.064198 -23.646603 -0.575965 -0.762084 0.295791
-65.029633 -41.929398 -22.325699 -0.584023 -0.741432 0.330447
-64.529633 -41.806900 -21.125000 -0.597945 -0.710156 0.371672
-64.029633 -41.708797 -20.164402 -0.522990 -0.687861 0.503317
-63.529629 -41.659801 -19.684097 -0.570220 -0.626377 0.531508
-63.029629 -41.573997 -18.843498 -0.551747 -0.684752 0.476120
-62.529629 -41.525002 -18.363201 -0.328507 -0.764641 0.554443
-62.029629 -41.500500 -18.123001 -0.049582 -0.749980 0.659599
-61.529629 -41.512699 -18.243099 0.078327 -0.690977 0.718620
-61.029629 -41.145100 -14.640801 -0.388162 -0.691520 0.609204
-60.529629 -41.108299 -14.280499 -0.445217 -0.714614 0.539545
-60.029629 -40.900002 -12.239202 -0.640673 -0.732827 0.229136
-59.529629 -40.642597 -9.717599 -0.636700 -0.699288 0.324977
-59.029629 -40.544601 -8.757005 -0.606822 -0.702390 0.372042
-58.529629 -40.434299 -7.676301 -0.643877 -0.653942 0.397217
-58.029629 -40.324001 -6.595597 -0.699862 -0.562329 0.440430
-57.529629 -40.238197 -5.754998 -0.607394 -0.555224 0.568153
-57.029629 -40.189201 -5.274697 -0.606712 -0.521185 0.600222
-56.529629 -40.127899 -4.674302 -0.536785 -0.535586 0.651928
-56.029629 -40.091099 -4.314103 -0.480059 -0.523131 0.704185
-55.529629 -40.054401 -3.953896 -0.541044 -0.505789 0.671899
-55.029629 -40.005299 -3.473603 -0.551591 -0.512493 0.658102
-54.529625 -39.956299 -2.993195 -0.438600 -0.538858 0.719210
-54.029625 -39.931797 -2.753106 -0.382121 -0.589903 0.711335
-53.529629 -39.895000 -2.392800 -0.371647 -0.615750 0.694788
-53.029629 -39.870499 -2.152695 -0.238590 -0.645730 0.725333
-52.529629 -39.858299 -2.032601 -0.284594 -0.663734 0.691710
-52.029629 -39.821499 -1.672402 -0.196393 -0.700930 0.685658
-51.529629 -39.821499 -1.672402 -0.072867 -0.754864 0.651821
-51.029629 -39.809196 -1.552300 -0.282708 -0.760783 0.584197
-50.529629 -39.760201 -1.071999 -0.447125 -0.762242 0.468045
-50.029629 -39.637695 0.128799 -0.244069 -0.810119 0.533045
-49.529629 -39.625401 0.248794 -0.299701 -0.799124 0.521133
-49.029629 -39.539600 1.089401 -0.579826 -0.674351 0.457222
-48.529629 -39.466099 1.809898 -0.404673 -0.695596 0.593622
-48.029629 -39.441597 2.049995 -0.402621 -0.665327 0.628678
-47.529629 -39.392601 2.530296 -0.369331 -0.645067 0.668942
-47.029629 -39.368099 2.770500 -0.317862 -0.627148 0.711090
-46.529629 -39.343498 3.010597 -0.310423 -0.602489 0.735285
-46.029629 -39.319000 3.250801 -0.443990 -0.561217 0.698505
-45.529629 -39.270000 3.731102 -0.409988 -0.556570 0.722592
-45.029629 -39.245499 3.971298 -0.350767 -0.559250 0.751134
-44.529629 -39.220997 4.211402 -0.334112 -0.582623 0.740891
-44.029629 -39.196499 4.451599 -0.331084 -0.575213 0.748006
-43.529629 -39.171997 4.691696 -0.252794 -0.570710 0.781272
-43.029629 -39.159698 4.811798 -0.263123 -0.578115 0.772366
-42.529629 -39.135201 5.052001 -0.258072 -0.579117 0.773319
-42.029629 -39.122898 5.171997 -0.080946 -0.595948 0.798933
-41.529629 -39.122898 5.171997 -0.098798 -0.581012 0.807876
-41.029629 -39.110699 5.292099 -0.170667 -0.611095 0.772940
-40.529629 -39.098396 5.412200 -0.082329 -0.668265 0.739354
-40.029629 -39.098396 5.412200 -0.008834 -0.669020 0.743192
-39.529629 -39.098396 5.412200 -0.060264 -0.679150 0.731521
-39.029629 -39.086197 5.532302 -0.078084 -0.711428 0.698408
-38.529629 -39.086197 5.532302 -0.057061 -0.729161 0.681960
-38.029629 -39.073902 5.652397 -0.131840 -0.766926 0.628046
-37.529629 -39.061699 5.772407 -0.117334 -0.803800 0.583214
-37.029629 -39.049400 5.892501 -0.110017 -0.826087 0.552699
-36.529629 -39.037197 6.012603 -0.120423 -0.818832 0.561260
-36.029629 -39.024899 6.132698 -0.128697 -0.777746 0.615263
-35.529629 -39.012596 6.252700 -0.069183 -0.761606 0.644337
-35.029629 -39.012596 6.252700 -0.058209 -0.760792 0.646380
-34.529629 -39.000401 6.372802 0.072048 -0.739680 0.669090
-34.029629 -39.024899 6.132698 0.251360 -0.732939 0.632154
-33.529629 -39.049400 5.892501 0.257002 -0.738424 0.623442
-33.029629 -39.073902 5.652397 0.186418 -0.743373 0.642375
-32.529629 -39.086197 5.532302 0.155884 -0.718958 0.677347
-32.029629 -39.098396 5.412200 0.241666 -0.715895 0.655051
-31.529631 -39.135201 5.052001 0.247407 -0.733414 0.633161
-31.029631 -39.147499 4.931907 0.078150 -0.770673 0.632421
-30.529631 -39.147499 4.931907 0.054799 -0.814283 0.577876
-30.029631 -39.159698 4.811798 0.051426 -0.840819 0.538867
-29.529631 -39.159698 4.811798 0.086644 -0.862143 0.499201
-29.029631 -39.184200 4.571601 0.081651 -0.876880 0.473724
-28.529631 -39.184200 4.571601 -0.041434 -0.887335 0.459260
-28.029631 -39.171997 4.691696 -0.147845 -0.891141 0.428964
-27.529631 -39.135201 5.052001 -0.073453 -0.873479 0.481288
-27.029631 -39.135201 5.052001 -0.051422 -0.857203 0.512406
-26.529631 -39.122898 5.171997 0.018882 -0.844329 0.535492
-26.029631 -39.135201 5.052001 0.178526 -0.836365 0.518288
-25.529631 -39.171997 4.691696 0.103181 -0.854129 0.509722
-25.029631 -39.171997 4.691696 0.002880 -0.842395 0.538853
-24.529631 -39.171997 4.691696 0.066778 -0.825823 0.559961
-24.029631 -39.184200 4.571601 0.065777 -0.824218 0.562440
-23.529631 -39.184200 4.571601 0.139228 -0.829445 0.540959
-23.029633 -39.233196 4.091407 0.310968 -0.846293 0.432535
-22.529631 -39.282299 3.611000 0.350978 -0.844989 0.403494
-22.029631 -39.417099 2.290206 0.273397 -0.725803 0.631240
-21.529631 -39.429302 2.170097 0.140302 -0.739332 0.658561
-21.029631 -39.441597 2.049995 0.027977 -0.782997 0.621395
-20.529631 -39.429302 2.170097 0.015878 -0.821552 0.569912
-20.029631 -39.441597 2.049995 -0.029414 -0.843678 0.536043
-19.529631 -39.404800 2.410202 -0.166237 -0.834324 0.525613
-19.029631 -39.392601 2.530296 0.025177 -0.827857 0.560374
-18.529631 -39.600899 0.489006 0.403763 -0.464286 0.788298
-18.029631 -39.625401 0.248794 0.333980 -0.296999 0.894566
-17.529631 -39.649899 0.008705 0.214304 -0.145831 0.965819
-17.029631 -39.649899 0.008705 0.182900 -0.355226 0.916712
-16.529631 -39.662197 -0.111405 0.250541 -0.582561 0.773209
-16.029631 -39.686699 -0.351494 0.414711 -0.673684 0.611690
-15.529630 -39.748001 -0.951905 0.419766 -0.656102 0.627158
-15.029630 -39.784702 -1.312195 0.336547 -0.646065 0.685081
-14.529630 -39.809196 -1.552300 0.364555 -0.645492 0.671148
-14.029630 -39.846001 -1.912606 0.213311 -0.683096 0.698483
-13.529630 -39.846001 -1.912606 0.000000 -0.683466 0.729982
-13.029630 -39.846001 -1.912606 0.177168 -0.702890 0.688882
-12.529630 -39.895000 -2.392800 0.404731 -0.714369 0.570850
28.470369 -36.311798 39.087196 -0.756714 -0.115537 0.643456
28.970369 -36.260700 39.769203 -0.770557 -0.066961 0.633843
29.470369 -36.218102 40.336197 -0.785729 -0.048579 0.616660
29.970369 -36.166901 41.017204 -0.755654 0.014243 0.654816
30.470369 -36.132900 41.472206 -0.685305 0.033247 0.727497
30.970369 -36.090302 42.039200 -0.665577 0.040455 0.745232
31.470369 -36.064701 42.380196 -0.617002 0.095811 0.781108
31.970369 -36.030598 42.834198 -0.698490 0.121107 0.705298
32.470371 -35.987999 43.402199 -0.650568 0.125860 0.748946
32.970371 -35.962502 43.742203 -0.615264 0.163469 0.771186
33.470371 -35.928398 44.196205 -0.667906 0.185008 0.720884
33.970371 -35.894299 44.651199 -0.608110 0.232116 0.759160
34.470371 -35.868797 44.991203 -0.619737 0.254124 0.742527
34.970371 -35.834698 45.445206 -0.676829 0.211491 0.705106
35.470371 -35.800598 45.899200 -0.639067 0.195794 0.743813
35.970371 -35.766499 46.354202 -0.710368 0.223679 0.667342
36.470371 -35.723900 46.921204 -0.639727 0.238199 0.730760
36.970371 -35.698399 47.262199 -0.625563 0.192168 0.756136
37.470371 -35.664299 47.716202 -0.609954 0.229380 0.758513
37.970371 -35.638699 48.057198 -0.529533 0.310836 0.789288
38.470371 -35.613197 48.397202 -0.550798 0.357619 0.754142
38.970371 -35.587597 48.738205 -0.553631 0.354323 0.753623
39.470371 -35.562000 49.078201 -0.532676 0.306758 0.788768
39.970371 -35.536499 49.419205 -0.462598 0.217125 0.859569
40.470371 -35.519402 49.646202 -0.202723 0.074380 0.976407
40.970371 -35.519402 49.646202 -0.131899 -0.000050 0.991263
41.470371 -35.510899 49.760201 -0.198609 -0.041808 0.979187
41.970371 -35.502399 49.873199 -0.218333 -0.083149 0.972326
74.970367 -39.257801 3.851196 -0.864358 -0.365151 0.345759
75.470367 -39.110699 5.292099 -0.825521 -0.362885 0.432238
75.970367 -39.024899 6.132698 -0.783181 -0.358580 0.507984
76.470367 -38.926899 7.093299 -0.818766 -0.290615 0.495141
76.970367 -38.841099 7.933799 -0.762925 -0.257500 0.592992
77.470367 -38.779800 8.534202 -0.759066 -0.190895 0.622397
77.970367 -38.718502 9.134597 -0.714635 -0.140667 0.685207
78.470367 -38.669498 9.614898 -0.567214 -0.093781 0.818214
78.970367 -38.645000 9.855094 -0.504851 -0.038241 0.862359
79.470367 -38.608200 10.215293 -0.584666 0.002991 0.811269
79.970367 -38.571400 10.575500 -0.565290 -0.033528 0.824211
80.470367 -38.534698 10.935798 -0.504626 -0.031233 0.862773
80.970367 -38.510201 11.175902 -0.504594 -0.031249 0.862791
81.470367 -38.473400 11.536101 -0.504641 -0.031255 0.862763
81.970367 -38.448898 11.776298 -0.432756 0.081318 0.897836
82.470367 -38.424400 12.016494 -0.452899 0.120214 0.883420
82.970367 -38.399899 12.256598 -0.414249 0.121263 0.902049
83.470367 -38.375397 12.496795 -0.433739 0.159839 0.886748
83.970367 -38.350899 12.736899 -0.332723 0.123234 0.934938
84.470367 -38.338600 12.856994 -0.255685 0.128108 0.958235
84.970367 -38.326298 12.977103 -0.311200 0.168209 0.935339
85.470367 -38.301800 13.217200 -0.331966 0.210241 0.919564
85.970367 -38.289600 13.337295 -0.325528 0.283268 0.902104
86.470367 -38.265099 13.577498 -0.207899 0.334207 0.919285
86.970367 -38.265099 13.577498 -0.116333 0.301395 0.946376
87.470367 -38.252800 13.697494 -0.249779 0.290214 0.923789
87.970367 -38.240597 13.817603 -0.209333 0.295908 0.931997
88.470367 -38.228302 13.937705 -0.209384 0.295923 0.931981
88.970367 -38.216000 14.057799 -0.228071 0.330595 0.915800
89.470367 -38.203800 14.177901 -0.227996 0.330585 0.915823
89.970367 -38.191498 14.297904 -0.116191 0.372887 0.920573
90.470367 -38.191498 14.297904 -0.113516 0.377057 0.919207
90.970367 -38.179298 14.417998 -0.116230 0.372904 0.920561
91.470367 -38.179298 14.417998 -0.020335 0.450525 0.892532
91.970367 -38.179298 14.417998 0.000000 0.486409 0.873731
92.470367 -38.179298 14.417998 0.000000 0.486409 0.873731
92.970367 -38.179298 14.417998 0.000000 0.486409 0.873731
93.470367 -38.179298 14.417998 0.101992 0.513539 0.851983
93.970367 -38.191498 14.297904 0.086808 0.543147 0.835138
94.470367 -38.191498 14.297904 0.218794 0.505505 0.834622
94.970367 -38.216000 14.057799 0.393685 0.501146 0.770626
95.470367 -38.240597 13.817603 0.503703 0.519552 0.690180
95.970367 -38.289600 13.337295 0.586525 0.463621 0.664111
96.470367 -38.326298 12.977103 0.608647 0.429009 0.667459
96.970367 -38.375397 12.496795 0.506199 0.443672 0.739539
97.470367 -38.399899 12.256598 0.241200 0.447221 0.861287
-84.279633 -41.519199 -25.229801 -0.378618 -0.672617 0.635794
-83.779633 -41.481998 -24.849598 -0.310388 -0.631804 0.710270
-83.279633 -41.469799 -24.729500 -0.247145 -0.632311 0.734236
-82.779633 -41.445396 -24.489300 -0.317457 -0.615595 0.721293
-82.279633 -41.420998 -24.249199 -0.144058 -0.597605 0.788743
-81.779633 -41.420998 -24.249199 -0.165269 -0.596766 0.785211
-81.279633 -41.396599 -24.009003 -0.271036 -0.670223 0.690899
-80.779633 -41.372200 -23.768898 -0.158818 -0.739103 0.654602
-80.279633 -41.372200 -23.768898 -0.060854 -0.765540 0.640504
-79.779633 -41.360001 -23.648800 -0.066649 -0.777131 0.625800
-79.279633 -41.360001 -23.648800 0.067931 -0.787635 0.612386
-78.779633 -41.372200 -23.768898 0.152311 -0.803829 0.575030
-78.279633 -41.396599 -24.009003 0.167941 -0.833842 0.525835
-77.779633 -41.408802 -24.129101 0.214532 -0.834668 0.507254
-77.279633 -41.457600 -24.609398 0.421642 -0.800435 0.426054
-76.779633 -41.543999 -25.483299 0.597858 -0.709726 0.372631
-76.279633 -41.643299 -26.497200 0.413286 -0.730839 0.543202
-75.779633 -41.668098 -26.750599 0.424244 -0.719357 0.550038
-75.279633 -41.767300 -27.764500 0.649855 -0.649341 0.395025
-74.779633 -41.891396 -29.031898 0.590179 -0.726512 0.351951
-74.279633 -41.990597 -30.045799 0.212557 -0.846001 0.488980
-73.779633 -42.002998 -30.172600 0.097568 -0.851536 0.515139
-65.779633 -41.176998 -21.847599 -0.585335 -0.710498 0.390611
-65.279633 -41.091599 -21.007000 -0.609143 -0.670166 0.424055
-64.779633 -41.006199 -20.166496 -0.623024 -0.596805 0.505634
-64.279633 -40.945198 -19.566101 -0.541932 -0.586182 0.602247
-63.779629 -40.908600 -19.205898 -0.534686 -0.621508 0.572572
-63.279629 -40.786598 -18.005100 -0.523617 -0.702296 0.482292
-62.779629 -40.737797 -17.524700 -0.336510 -0.734533 0.589255
-62.279629 -40.713402 -17.284599 -0.216747 -0.743152 0.633045
-61.779629 -40.408401 -14.282601 -0.390392 -0.713848 0.581391
-61.279629 -40.371799 -13.922303 -0.424655 -0.727798 0.538496
-60.779629 -40.176598 -12.001103 -0.716660 -0.653210 0.244367
-60.279629 -39.969200 -9.959699 -0.717430 -0.637299 0.281326
-59.779629 -39.834999 -8.638803 -0.635053 -0.674953 0.375695
-59.279629 -39.737400 -7.678200 -0.621902 -0.648239 0.439344
-58.779629 -39.664200 -6.957802 -0.657087 -0.592204 0.466402
-58.279629 -39.578800 -6.117203 -0.686945 -0.522517 0.505057
-57.779629 -39.505600 -5.396706 -0.642875 -0.481703 0.595545
-57.279629 -39.456802 -4.916398 -0.602980 -0.507251 0.615721
-56.779629 -39.395798 -4.316002 -0.550026 -0.511226 0.660393
-56.279629 -39.359200 -3.955796 -0.508073 -0.531797 0.677536
-55.779629 -39.310402 -3.475396 -0.499920 -0.555830 0.664178
-55.279629 -39.273800 -3.115197 -0.521407 -0.512571 0.682206
-54.779633 -39.224998 -2.634896 -0.505535 -0.527242 0.682972
-54.279629 -39.188396 -2.274605 -0.464000 -0.561574 0.685083
-53.779629 -39.151798 -1.914399 -0.388267 -0.599594 0.699811
-53.279629 -39.127399 -1.674302 -0.318334 -0.626439 0.711504
-52.779629 -39.103001 -1.434105 -0.364646 -0.668710 0.647966
-52.279629 -39.054199 -0.953804 -0.411816 -0.732479 0.542109
-51.779629 -39.005402 -0.473504 -0.387467 -0.777489 0.495358
-51.279629 -38.956600 0.006896 -0.411426 -0.778746 0.473586
-50.779629 -38.895599 0.607307 -0.428046 -0.728989 0.534183
-50.279629 -38.859001 0.967498 -0.381236 -0.732110 0.564512
-49.779629 -38.810200 1.447807 -0.453283 -0.720818 0.524363
-49.279629 -38.761402 1.928100 -0.505270 -0.674782 0.537932
-48.779629 -38.700397 2.528503 -0.421782 -0.654272 0.627716
-48.279629 -38.675999 2.768699 -0.315310 -0.655457 0.686262
-47.779629 -38.651596 3.008903 -0.311692 -0.607716 0.730431
-47.279629 -38.627197 3.249000 -0.321652 -0.572776 0.753968
-46.779629 -38.602798 3.489204 -0.269033 -0.559136 0.784212
-46.279629 -38.590599 3.609298 -0.356238 -0.558908 0.748810
-45.779629 -38.541798 4.089599 -0.353366 -0.508106 0.785469
-45.279629 -38.529598 4.209693 -0.342396 -0.464192 0.816879
-44.779629 -38.492996 4.569900 -0.430110 -0.470288 0.770607
-44.279629 -38.468601 4.809997 -0.352605 -0.508201 0.785749
-43.779629 -38.444199 5.050193 -0.382582 -0.535459 0.752938
-43.279629 -38.407600 5.410400 -0.212305 -0.587101 0.781178
-42.779629 -38.407600 5.410400 -0.184867 -0.554619 0.811309
-42.279629 -38.383198 5.650604 -0.184873 -0.554697 0.811254
-41.779629 -38.383198 5.650604 -0.081053 -0.596262 0.798688
-41.279629 -38.370998 5.770698 -0.236055 -0.604718 0.760654
-40.779629 -38.346596 6.010803 -0.244159 -0.620999 0.744813
-40.279629 -38.334400 6.130905 -0.090750 -0.680257 0.727334
-39.779629 -38.334400 6.130905 -0.110824 -0.729028 0.675452
-39.279629 -38.310001 6.371101 -0.134156 -0.763004 0.632319
-38.779629 -38.310001 6.371101 -0.100238 -0.780575 0.616973
-38.279629 -38.285599 6.611198 -0.223535 -0.794437 0.564714
-37.779629 -38.261200 6.851394 -0.174868 -0.796046 0.579424
-37.279629 -38.248997 6.971504 -0.120451 -0.788057 0.603703
-36.779629 -38.236797 7.091606 -0.128828 -0.777511 0.615533
-36.279629 -38.224598 7.211601 0.000000 -0.775274 0.631626
-35.779629 -38.236797 7.091606 -0.010979 -0.763506 0.645707
-35.279629 -38.224598 7.211601 0.000000 -0.754433 0.656377
-34.779629 -38.236797 7.091606 0.129954 -0.724479 0.676936
-34.279629 -38.248997 6.971504 0.164070 -0.699355 0.695690
-33.779629 -38.261200 6.851394 0.153271 -0.712678 0.684542
-33.279629 -38.273399 6.731300 0.156919 -0.721106 0.674820
-32.779629 -38.285599 6.611198 0.229141 -0.717734 0.657535
-32.279629 -38.322201 6.250999 0.171547 -0.737375 0.653337
-31.779631 -38.322201 6.250999 0.129403 -0.739862 0.660196
-31.279631 -38.346596 6.010803 0.116601 -0.775366 0.620655
-30.779631 -38.346596 6.010803 -0.058218 -0.785578 0.616019
-30.279631 -38.334400 6.130905 -0.121033 -0.786606 0.605477
-29.779631 -38.322201 6.250999 -0.057059 -0.792160 0.607641
-29.279631 -38.322201 6.250999 -0.092510 -0.802090 0.589995
-28.779631 -38.297798 6.491195 -0.179335 -0.783958 0.594348
-28.279631 -38.285599 6.611198 -0.016752 -0.787744 0.615775
-27.779631 -38.297798 6.491195 0.158016 -0.804690 0.572281
-27.279631 -38.322201 6.250999 0.042167 -0.825151 0.563336
-26.779631 -38.310001 6.371101 0.040302 -0.811176 0.583412
-26.279631 -38.334400 6.130905 0.113368 -0.802998 0.585100
-25.779631 -38.334400 6.130905 0.073663 -0.801117 0.593957
-25.279631 -38.346596 6.010803 0.122270 -0.791156 0.599268
-24.779631 -38.358799 5.890800 0.170210 -0.784893 0.595794
-24.279631 -38.383198 5.650604 0.187888 -0.774376 0.604185
-23.779631 -38.395397 5.530494 0.063995 -0.760784 0.645842
-23.279631 -38.395397 5.530494 -0.042238 -0.767859 0.639224
-22.779631 -38.383198 5.650604 0.052377 -0.769571 0.636410
-22.279631 -38.407600 5.410400 0.247961 -0.781814 0.572086
-21.779631 -38.444199 5.050193 0.238205 -0.830634 0.503294
-21.279631 -38.468601 4.809997 0.284697 -0.846024 0.450768
-20.779631 -38.554001 3.969497 0.341688 -0.852775 0.394998
-20.279631 -38.602798 3.489204 0.183782 -0.840544 0.509617
-19.779631 -38.615002 3.369102 0.002971 -0.796337 0.604845
-19.279631 -38.602798 3.489204 -0.000007 -0.772062 0.635547
-18.779631 -38.615002 3.369102 0.098526 -0.795888 0.597374
-18.279631 -38.615002 3.369102 0.065353 -0.797109 0.600289
-17.779631 -38.627197 3.249000 0.069642 -0.742183 0.666569
-17.279631 -38.627197 3.249000 0.063220 -0.741558 0.667903
-16.779631 -38.639397 3.128898 0.199091 -0.747845 0.633317
-16.279631 -38.663799 2.888801 0.124353 -0.746124 0.654091
-15.779630 -38.663799 2.888801 0.035791 -0.738440 0.673369
-15.279630 -39.005402 -0.473504 0.071072 -0.771465 0.632290
-14.779630 -39.005402 -0.473504 0.133117 -0.799421 0.585838
-14.279630 -39.041996 -0.833695 0.371499 -0.738322 0.562911
-13.779630 -39.078598 -1.193894 0.159829 -0.722535 0.672605
-13.279630 -39.078598 -1.193894 0.006680 -0.695561 0.718436
-12.779630 -39.078598 -1.193894 0.075679 -0.715046 0.694969
-12.279630 -39.090797 -1.314003 0.202815 -0.760828 0.616447
-11.779630 -39.139599 -1.794304 0.453011 -0.762078 0.462621
28.220369 -35.646500 38.974205 -0.708589 -0.087551 0.700169
28.720369 -35.612598 39.428207 -0.704724 -0.038427 0.708440
29.220369 -35.570297 39.996201 -0.778154 0.029613 0.627375
29.720369 -35.519596 40.677200 -0.766165 0.063148 0.639533
30.220369 -35.477299 41.245201 -0.709546 0.082742 0.699785
30.720369 -35.443401 41.699203 -0.669609 0.129441 0.731348
31.220369 -35.409599 42.153198 -0.612096 0.157934 0.774852
31.720369 -35.384197 42.494202 -0.615690 0.163298 0.770883
32.220371 -35.350399 42.948204 -0.676801 0.211074 0.705258
32.720371 -35.316498 43.402199 -0.589395 0.265211 0.763070
33.220371 -35.291199 43.742203 -0.620019 0.253308 0.742571
33.720371 -35.257301 44.197205 -0.601092 0.293708 0.743252
34.220371 -35.231899 44.537201 -0.600792 0.293822 0.743450
34.720371 -35.198097 44.991203 -0.687897 0.239913 0.685011
35.220371 -35.155800 45.559196 -0.641332 0.246969 0.726429
35.720371 -35.130398 45.900200 -0.602151 0.288000 0.744627
36.220371 -35.096600 46.354202 -0.703668 0.280445 0.652842
36.720371 -35.054298 46.922195 -0.668288 0.268060 0.693927
37.220371 -35.020397 47.376198 -0.617299 0.249755 0.746032
37.720371 -34.995098 47.716202 -0.510850 0.240251 0.825416
38.220371 -34.978100 47.943207 -0.476150 0.246190 0.844199
38.720371 -34.952797 48.284203 -0.589827 0.265824 0.762523
39.220371 -34.918900 48.738205 -0.607891 0.226488 0.761033
39.720371 -34.893497 49.079201 -0.558169 0.207927 0.803252
40.220371 -34.868099 49.420197 -0.483834 0.180326 0.856380
40.720371 -34.851200 49.647202 -0.314020 0.032238 0.948869
41.220371 -34.842796 49.760201 -0.237383 -0.119330 0.964059
41.720371 -34.834301 49.874199 -0.215807 -0.159131 0.963382
42.220371 -34.825798 49.987206 -0.173829 -0.163658 0.971082
74.220367 -38.688198 2.648597 -0.819478 -0.421855 0.387936
74.720367 -38.554001 3.969497 -0.864142 -0.368563 0.342665
75.220367 -38.395397 5.530494 -0.781265 -0.405670 0.474402
75.720367 -38.322201 6.250999 -0.763309 -0.354753 0.539916
76.220367 -38.236797 7.091606 -0.796564 -0.303447 0.522883
76.720367 -38.163601 7.812004 -0.751229 -0.265656 0.604220
77.220367 -38.102596 8.412398 -0.740542 -0.210734 0.638114
77.720367 -38.041599 9.012801 -0.697040 -0.173090 0.695827
78.220367 -37.992798 9.493201 -0.614280 -0.056404 0.787070
78.720367 -37.956200 9.853400 -0.504846 -0.038231 0.862362
79.220367 -37.931797 10.093596 -0.521205 -0.068949 0.850642
79.720367 -37.895199 10.453795 -0.579880 -0.068228 0.811840
80.220367 -37.858601 10.814002 -0.504654 -0.031234 0.862757
80.720367 -37.834198 11.054198 -0.490216 0.001350 0.871600
81.220367 -37.797596 11.414397 -0.506174 0.047032 0.861148
81.720367 -37.773201 11.654601 -0.352819 0.084478 0.931870
82.220367 -37.761002 11.774703 -0.405831 0.082430 0.910223
82.720367 -37.724400 12.134902 -0.405786 0.082409 0.910245
83.220367 -37.712200 12.254996 -0.332720 0.123198 0.934944
83.720367 -37.687798 12.495101 -0.433714 0.159819 0.886764
84.220367 -37.663399 12.735297 -0.311220 0.168143 0.935345
84.720367 -37.651196 12.855399 -0.234060 0.171274 0.957017
85.220367 -37.639000 12.975501 -0.254242 0.212238 0.943566
85.720367 -37.626801 13.095496 -0.231632 0.255046 0.938775
86.220367 -37.614601 13.215598 -0.249812 0.290148 0.923801
86.720367 -37.602398 13.335692 -0.209344 0.295801 0.932028
87.220367 -37.590199 13.455802 -0.231688 0.255100 0.938746
87.720367 -37.577999 13.575904 -0.231651 0.255086 0.938759
88.220367 -37.565800 13.695899 -0.116333 0.301362 0.946387
88.720367 -37.565800 13.695899 -0.133882 0.336469 0.932129
89.220367 -37.553600 13.816001 -0.228044 0.330566 0.915818
89.720367 -37.541397 13.936103 -0.113530 0.376991 0.919233
90.220367 -37.541397 13.936103 -0.090709 0.413383 0.906028
90.720367 -37.529198 14.056197 -0.130979 0.412736 0.901384
91.220367 -37.529198 14.056197 0.000000 0.413730 0.910400
91.720367 -37.529198 14.056197 0.020313 0.450395 0.892598
92.220367 -37.529198 14.056197 0.000000 0.486260 0.873814
92.720367 -37.529198 14.056197 0.000000 0.486260 0.873814
93.220367 -37.529198 14.056197 0.088787 0.484349 0.870358
93.720367 -37.541397 13.936103 0.126072 0.478210 0.869150
94.220367 -37.541397 13.936103 0.102002 0.513336 0.852104
94.720367 -37.553600 13.816001 0.368608 0.507991 0.778507
95.220367 -37.590199 13.455802 0.526244 0.510233 0.680243
95.720367 -37.626801 13.095496 0.533729 0.525355 0.662673
96.220367 -37.663399 12.735297 0.571581 0.507642 0.644667
96.720367 -37.712200 12.254996 0.500239 0.509930 0.699808
97.220367 -37.736599 12.014800 0.066341 0.439522 0.895778
97.720367 -37.724400 12.134902 -0.228206 0.327869 0.916746
-85.029633 -40.777199 -24.851799 -0.342000 -0.535868 0.771934
-84.529633 -40.752899 -24.611599 -0.237505 -0.539642 0.807699
-84.029633 -40.740799 -24.491501 -0.290071 -0.528138 0.798078
-83.529633 -40.716499 -24.251400 -0.337564 -0.525625 0.780877
-83.029633 -40.692200 -24.011200 -0.336341 -0.560411 0.756845
-82.529633 -40.667900 -23.771000 -0.160307 -0.566442 0.808359
-82.029633 -40.667900 -23.771000 -0.180697 -0.569267 0.802050
-81.529633 -40.631500 -23.410801 -0.352606 -0.626525 0.695079
-81.029633 -40.607201 -23.170597 -0.359872 -0.644873 0.674263
-80.529633 -40.570702 -22.810398 -0.119802 -0.791988 0.598668
-80.029633 -40.570702 -22.810398 -0.064783 -0.815208 0.575534
-79.529633 -40.558601 -22.690300 0.003012 -0.815884 0.578208
-79.029633 -40.570702 -22.810398 0.065371 -0.807616 0.586074
-78.529633 -40.570702 -22.810398 0.003789 -0.810576 0.585621
-78.029633 -40.570702 -22.810398 0.118411 -0.816385 0.565239
-77.529633 -40.595001 -23.050598 0.272947 -0.796279 0.539851
-77.029633 -40.631500 -23.410801 0.386721 -0.771732 0.504853
-76.529633 -40.692200 -24.011200 0.524131 -0.742412 0.417266
-76.029633 -40.826500 -25.358700 0.535011 -0.755708 0.377715
-75.529633 -40.888100 -25.992302 0.594980 -0.671253 0.442062
-75.029633 -40.986698 -27.006199 0.636087 -0.641613 0.428633
-74.529633 -41.060699 -27.766602 0.619895 -0.672531 0.404268
-74.029633 -41.159298 -28.780399 0.139968 -0.853852 0.501344
-73.529633 -41.134602 -28.526897 -0.231976 -0.811354 0.536556
-67.529633 -41.159298 -28.780399 -0.628496 -0.710367 0.316813
-67.029633 -41.035999 -27.513100 -0.561032 -0.669853 0.486354
-66.529633 -40.570702 -22.810398 -0.860797 -0.398926 0.316047
-66.029633 -40.412899 -21.249397 -0.779870 -0.486805 0.393476
-65.529633 -40.315701 -20.288700 -0.646763 -0.592861 0.479805
-65.029633 -40.255001 -19.688301 -0.565577 -0.529363 0.632375
-64.529633 -40.206402 -19.208000 -0.634028 -0.537412 0.556055
-64.029633 -40.133499 -18.487499 -0.651322 -0.613674 0.446300
-63.529629 -39.939201 -16.566200 -0.734076 -0.634082 0.243048
-63.029629 -39.781300 -15.005101 -0.583853 -0.719126 0.376793
-62.529629 -39.684200 -14.044503 -0.550622 -0.691557 0.467509
-62.029629 -39.635601 -13.564202 -0.492356 -0.695894 0.522797
-61.529629 -39.574902 -12.963700 -0.565624 -0.609806 0.555162
-61.029629 -39.404900 -11.282601 -0.815494 -0.524871 0.243885
-60.529629 -39.186298 -9.121099 -0.762021 -0.581529 0.284865
-60.029629 -39.040501 -7.680199 -0.661043 -0.618551 0.424755
-59.529629 -38.967701 -6.959702 -0.591267 -0.627773 0.506264
-59.029629 -38.906898 -6.359299 -0.598204 -0.613108 0.515995
-58.529629 -38.834099 -5.638802 -0.578506 -0.599249 0.553383
-58.029629 -38.785500 -5.158501 -0.592711 -0.562475 0.576468
-57.529629 -38.724800 -4.557999 -0.591317 -0.567216 0.573245
-57.029629 -38.663998 -3.957604 -0.524596 -0.531223 0.665282
-56.529629 -38.627598 -3.597405 -0.545171 -0.544733 0.637224
-56.029629 -38.566898 -2.996994 -0.438107 -0.588964 0.679105
-55.529629 -38.542599 -2.756798 -0.442139 -0.580476 0.683784
-55.029629 -38.493999 -2.276505 -0.491921 -0.560704 0.666051
-54.529625 -38.457600 -1.916298 -0.504082 -0.548680 0.666972
-54.029625 -38.409000 -1.435898 -0.486406 -0.594293 0.640488
-53.529629 -38.372601 -1.075699 -0.411870 -0.651348 0.637267
-53.029629 -38.336098 -0.715500 -0.447973 -0.685631 0.573786
-52.529629 -38.275398 -0.115098 -0.481832 -0.694716 0.534048
-52.029629 -38.226799 0.365303 -0.458906 -0.707230 0.537802
-51.529629 -38.178299 0.845603 -0.443819 -0.719109 0.534702
-51.029629 -38.129700 1.325897 -0.413966 -0.702945 0.578360
-50.529629 -38.093201 1.686203 -0.425521 -0.689395 0.586231
-50.029629 -38.044701 2.166503 -0.474650 -0.665775 0.575717
-49.529629 -37.996101 2.646804 -0.445966 -0.661351 0.603099
-49.029629 -37.959702 3.007095 -0.432920 -0.614738 0.659300
-48.529629 -37.923199 3.367294 -0.369463 -0.579499 0.726414
-48.029629 -37.898899 3.607505 -0.260877 -0.589404 0.764556
-47.529629 -37.886799 3.727600 -0.175149 -0.570164 0.802643
-47.029629 -37.874599 3.847595 -0.279328 -0.518223 0.808345
-46.529629 -37.850399 4.087799 -0.392372 -0.534756 0.748385
-46.029629 -37.813900 4.448097 -0.321350 -0.514804 0.794803
-45.529629 -37.801800 4.568099 -0.268788 -0.498394 0.824231
-45.029629 -37.777500 4.808296 -0.434547 -0.484203 0.759418
-44.529629 -37.741100 5.168495 -0.408289 -0.498805 0.764522
-44.029629 -37.716801 5.408706 -0.407307 -0.498636 0.765155
-43.529629 -37.680298 5.768997 -0.344599 -0.477553 0.808205
-43.029629 -37.668198 5.888999 -0.185507 -0.531049 0.826785
-42.529629 -37.655998 6.009101 -0.268882 -0.559871 0.783739
-42.029629 -37.631699 6.249298 -0.241222 -0.605901 0.758087
-41.529629 -37.619598 6.369407 -0.163051 -0.647543 0.744380
-41.029629 -37.607498 6.489402 -0.248481 -0.646815 0.721032
-40.529629 -37.583199 6.729599 -0.286854 -0.652153 0.701720
-40.029629 -37.558899 6.969802 -0.279070 -0.696690 0.660865
-39.529629 -37.534599 7.209907 -0.269546 -0.724437 0.634457
-39.029629 -37.510300 7.450103 -0.255734 -0.722247 0.642619
-38.529629 -37.486000 7.690200 -0.205878 -0.718632 0.664215
-38.029629 -37.473900 7.810302 -0.150354 -0.713925 0.683889
-37.529629 -37.461700 7.930397 -0.080917 -0.716810 0.692557
-37.029629 -37.461700 7.930397 -0.076800 -0.728885 0.680315
-36.529629 -37.449600 8.050498 -0.068610 -0.717974 0.692680
-36.029629 -37.449600 8.050498 0.014400 -0.701104 0.712914
-35.529629 -37.449600 8.050498 -0.004811 -0.683878 0.729580
-35.029629 -37.449600 8.050498 0.071485 -0.684671 0.725339
-34.529629 -37.461700 7.930397 0.151963 -0.694813 0.702952
-34.029629 -37.473900 7.810302 0.234140 -0.676083 0.698635
-33.529629 -37.498199 7.570198 0.198646 -0.692721 0.693309
-33.029629 -37.510300 7.450103 0.226885 -0.690810 0.686516
-32.529629 -37.534599 7.209907 0.207730 -0.679043 0.704095
-32.029629 -37.546700 7.089897 0.168913 -0.680962 0.712572
-31.529631 -37.558899 6.969802 0.091401 -0.686671 0.721200
-31.029631 -37.558899 6.969802 0.000000 -0.691688 0.722196
-30.529631 -37.558899 6.969802 -0.079721 -0.698423 0.711231
-30.029631 -37.546700 7.089897 -0.078242 -0.708206 0.701656
-29.529631 -37.546700 7.089897 -0.069951 -0.719850 0.690596
-29.029631 -37.534599 7.209907 -0.153222 -0.712913 0.684309
-28.529631 -37.522400 7.330001 -0.148305 -0.707454 0.691024
-28.029631 -37.510300 7.450103 -0.063064 -0.717869 0.693316
-27.529631 -37.510300 7.450103 0.066048 -0.733730 0.676223
-27.029631 -37.522400 7.330001 0.061558 -0.752862 0.655294
-26.529631 -37.522400 7.330001 0.075182 -0.746928 0.660640
-26.029631 -37.534599 7.209907 0.139274 -0.742521 0.655184
-25.529631 -37.546700 7.089897 0.197710 -0.742042 0.640535
-25.029631 -37.570999 6.849700 0.185969 -0.748345 0.636706
-24.529631 -37.583199 6.729599 0.147719 -0.734608 0.662216
-24.029631 -37.595299 6.609497 0.203327 -0.734790 0.647103
-23.529631 -37.619598 6.369407 0.109792 -0.745728 0.657142
-23.029633 -37.619598 6.369407 0.072417 -0.708386 0.702100
-22.529631 -37.631699 6.249298 0.167904 -0.659471 0.732739
-22.029631 -37.643898 6.129196 0.082094 -0.673879 0.734267
-21.529631 -37.643898 6.129196 0.145729 -0.711304 0.687611
-21.029631 -37.668198 5.888999 0.297758 -0.740413 0.602602
-20.529631 -37.704597 5.528800 0.280273 -0.794758 0.538337
-20.029631 -37.728901 5.288597 0.278107 -0.821393 0.497967
-19.529631 -37.777500 4.808296 0.297228 -0.834844 0.463348
-19.029631 -37.813900 4.448097 0.168942 -0.827378 0.535635
-18.529631 -37.826099 4.327995 0.118153 -0.801228 0.586578
-18.029631 -37.838200 4.207901 0.130592 -0.781215 0.610450
-17.529631 -37.850399 4.087799 0.064097 -0.764531 0.641392
-17.029631 -37.850399 4.087799 0.064408 -0.760628 0.645985
-16.529631 -37.862499 3.967704 0.212711 -0.743353 0.634177
-16.029631 -37.886799 3.727600 0.120623 -0.738897 0.662934
-15.529630 -37.886799 3.727600 0.133574 -0.734616 0.665204
-15.029630 -37.911098 3.487403 0.256014 -0.729633 0.634108
-14.529630 -38.153999 1.085800 -0.247351 -0.887393 0.389040
-14.029630 -38.081100 1.806304 0.548269 -0.762126 0.344333
-13.529630 -38.299698 -0.355202 0.246623 -0.740781 0.624836
-13.029630 -38.311798 -0.475304 0.068004 -0.693929 0.716825
-12.529630 -38.311798 -0.475304 0.100982 -0.697778 0.709160
-12.029630 -38.324001 -0.595398 0.162102 -0.685364 0.709929
-11.529630 -38.336098 -0.715500 0.290692 -0.700442 0.651827
-11.029630 -38.421101 -1.556000 0.551451 -0.717708 0.425202
27.470369 -35.048298 37.952202 -0.783997 -0.193360 0.589882
27.970369 -34.997902 38.633194 -0.770188 -0.086990 0.631858
28.470369 -34.947502 39.314201 -0.678558 -0.039298 0.733495
28.970369 -34.922298 39.655197 -0.678769 -0.039286 0.733300
29.470369 -34.871899 40.336197 -0.736291 0.069591 0.673077
29.970369 -34.838299 40.790199 -0.707968 0.144618 0.691279
30.470369 -34.796299 41.358200 -0.649776 0.189495 0.736127
30.970369 -34.771099 41.699203 -0.608022 0.226080 0.761050
31.470369 -34.737499 42.153198 -0.589950 0.265099 0.762680
31.970369 -34.712299 42.494202 -0.601858 0.287870 0.744915
32.470371 -34.678699 42.948204 -0.609666 0.312344 0.728525
32.970371 -34.653400 43.289200 -0.581734 0.327709 0.744441
33.470371 -34.619797 43.743202 -0.591848 0.348865 0.726642
33.970371 -34.594601 44.083199 -0.591390 0.349047 0.726928
34.470371 -34.560997 44.538200 -0.652371 0.300756 0.695671
34.970371 -34.527401 44.992203 -0.659356 0.322442 0.679177
35.470371 -34.493797 45.446205 -0.570581 0.384393 0.725727
35.970371 -34.468601 45.787201 -0.643449 0.331808 0.689838
36.470371 -34.426598 46.354202 -0.686466 0.317810 0.654035
36.970371 -34.392998 46.809204 -0.640879 0.358617 0.678724
37.470371 -34.359402 47.263199 -0.649932 0.303205 0.696890
37.970371 -34.325798 47.717201 -0.530044 0.197350 0.824686
38.470371 -34.308998 47.944206 -0.503053 0.144068 0.852163
38.970371 -34.283798 48.285202 -0.612066 0.158148 0.774831
39.470371 -34.250198 48.739204 -0.596913 0.202547 0.776318
39.970371 -34.224998 49.079201 -0.575702 0.171136 0.799549
40.470371 -34.199799 49.420197 -0.562081 0.074611 0.823710
40.970371 -34.174599 49.761200 -0.478774 -0.110800 0.870919
41.470371 -34.157799 49.988205 -0.283886 -0.234824 0.929659
41.970371 -34.149399 50.101196 -0.080421 -0.160440 0.983764
42.470371 -34.149399 50.101196 0.000000 -0.067029 0.997751
73.970367 -37.959702 3.007095 -0.809523 -0.413870 0.416394
74.470367 -37.850399 4.087799 -0.853976 -0.369777 0.366047
74.970367 -37.680298 5.768997 -0.785621 -0.348104 0.511491
75.470367 -37.619598 6.369407 -0.724526 -0.357779 0.589114
75.970367 -37.546700 7.089897 -0.791901 -0.286023 0.539521
76.470367 -37.461700 7.930397 -0.729231 -0.269233 0.629075
76.970367 -37.413097 8.410697 -0.694404 -0.251303 0.674277
77.470367 -37.352398 9.011092 -0.647795 -0.163769 0.744004
77.970367 -37.315998 9.371398 -0.531449 -0.096217 0.841608
78.470367 -37.291698 9.611503 -0.504813 -0.038244 0.862381
78.970367 -37.255299 9.971793 -0.565320 -0.033475 0.824192
79.470367 -37.218800 10.332000 -0.579923 -0.068197 0.811812
79.970367 -37.182400 10.692298 -0.504642 -0.031232 0.862763
80.470367 -37.158100 10.932403 -0.433052 0.002161 0.901367
80.970367 -37.133801 11.172599 -0.452579 0.040724 0.890794
81.470367 -37.109501 11.412795 -0.434747 0.081281 0.896877
81.970367 -37.085197 11.652900 -0.413887 0.042678 0.909327
82.470367 -37.061001 11.893096 -0.452599 0.040755 0.890783
82.970367 -37.036701 12.133300 -0.312837 0.085577 0.945944
83.470367 -37.024498 12.253295 -0.352760 0.084514 0.931889
83.970367 -37.000198 12.493499 -0.334693 0.127195 0.933703
84.470367 -36.988098 12.613601 -0.210678 0.214591 0.953711
84.970367 -36.975899 12.733695 -0.254232 0.212222 0.943572
85.470367 -36.963799 12.853705 -0.233938 0.171334 0.957036
85.970367 -36.951698 12.973800 -0.210674 0.214641 0.953701
86.470367 -36.939499 13.093902 -0.231685 0.255008 0.938772
86.970367 -36.927399 13.213996 -0.231617 0.255032 0.938783
87.470367 -36.915199 13.333999 -0.231690 0.255050 0.938759
87.970367 -36.903099 13.454200 -0.137745 0.258858 0.956043
88.470367 -36.903099 13.454200 -0.093213 0.259439 0.961251
88.970367 -36.890900 13.574195 -0.231607 0.255094 0.938768
89.470367 -36.878799 13.694297 -0.116388 0.301391 0.946370
89.970367 -36.878799 13.694297 0.000000 0.342771 0.939419
90.470367 -36.878799 13.694297 -0.109206 0.376815 0.919828
90.970367 -36.866600 13.814406 -0.109188 0.376822 0.919828
91.470367 -36.866600 13.814406 0.092083 0.341336 0.935420
91.970367 -36.878799 13.694297 0.116223 0.372756 0.920622
92.470367 -36.878799 13.694297 0.000000 0.413649 0.910437
92.970367 -36.878799 13.694297 0.020287 0.450277 0.892658
93.470367 -36.878799 13.694297 0.126035 0.478016 0.869262
93.970367 -36.890900 13.574195 0.194380 0.506697 0.839925
94.470367 -36.903099 13.454200 0.291850 0.548053 0.783876
94.970367 -36.927399 13.213996 0.503530 0.519255 0.690531
95.470367 -36.975899 12.733695 0.574149 0.514653 0.636778
95.970367 -37.012398 12.373405 0.551711 0.545315 0.631068
96.470367 -37.061001 11.893096 0.506873 0.529279 0.680400
96.970367 -37.085197 11.652900 0.083641 0.537065 0.839384
97.470367 -37.073101 11.772994 -0.218318 0.455651 0.862971
-85.779633 -40.060299 -24.733898 -0.393091 -0.656684 0.643619
-85.279633 -40.023998 -24.373699 -0.277647 -0.655376 0.702421
-84.779633 -40.012001 -24.253601 -0.174362 -0.599994 0.780772
-84.279633 -39.999901 -24.133499 -0.237819 -0.536699 0.809565
-83.779633 -39.975700 -23.893299 -0.354822 -0.501173 0.789258
-83.279633 -39.588799 -20.050701 -0.323324 -0.747361 0.580442
-82.779633 -39.552601 -19.690399 -0.249304 -0.758523 0.602072
-82.279633 -39.540501 -19.570297 0.000000 -0.783468 0.621432
-81.779633 -39.552601 -19.690399 0.128839 -0.778105 0.614779
-81.279633 -39.564701 -19.810497 0.217370 -0.787499 0.576712
-80.779633 -39.600899 -20.170700 0.178415 -0.836817 0.517595
